0 0 0 0 0 0 0 0 0 0 0 0 0 0 0 0 0 0 0 0 0 0 0 0 0 0 0 0 0 0 0 0 0 0 0 0 0 0 0 0 0 0 0 0 0 0 0 0 0 0 0 0 0 0 0 0 0 0 0 0 0 0 0 0 0 0 0 0 0 0 0 0 0 0 0 0 0 0 0 0 0 0 0 0 0 0 0.0343122 0.240464 0.447103 0.678778 0.717986 0.717356 0.716839 0.716472 0.716095 0.715216 0.714964 0.714482 0.71423 0.71405 0.713684 0.713075 0.71272 0.712074 0.711734 0.711142 0.710924 0.710516 0.709685 0.709996 0.709149 0.70862 0.708801 0.707983 0.707233 0.70724 0.706803 0.70643 0.706049 0.705778 0.705224 0.704818 0.704646 0.703887 0.703554 0.703268 0.702635 0.702551 0.702234 0.70149 0.701441 0.701148 0.700452 0.700186 0.699925 0.699438 0.698647 0.699066 0.698603 0.69786 0.698036 0.697376 0.696821 0.696485 0.696103 0.695289 0.695198 0.695299 0.694944 0.69437 0.693858 0.693819 0.693596 0.693191 0.69252 0.692106 0.692123 0.691302 0.691333 0.690844 0.690651 0.690397 0.69005 0.689764 0.689642 0.689093 0.689038 0.688571 0.688052 0.6877 0.687531 0.687384 0.686906 0.686869 0.686314 0.685938 0.685641 0.685214 0.684926 0.684921 0.684555 0.684283 0.684105 0.683629 0.683142 0.683149 0.683159 0.68251 0.682583 0.682289 0.681566 0.681528 0.681342 0.681068 0.680528 0.680794 0.680051 0.680352 0.679887 0.679566 0.679126 0.679117 0.678567 0.678549 0.678355 0.677842 0.677771 0.677523 0.677375 0.67681 0.677072 0.676455 0.676413 0.676427 0.675975 0.67575 0.675622 0.67524 0.675173 0.674608 0.674711 0.674771 0.674022 0.673922 0.673978 0.673392 0.673665 0.67348 0.673175 0.673014 0.67279 0.672613 0.672467 0.67204 0.672051 0.671853 0.671256 0.671505 0.67147 0.671155 0.670873 0.670525 0.670941 0.670691 0.670444 0.670391 0.67012 0.667828 0.616044 0.599646 0.599054 0.598503 0.597984 0.597127 0.596939 0.596721 0.596714 0.597044 0.597642 0.596435 0.595805 0.595555 0.594234 0.59166 0.590806 0.590438 0.589722 0.589134 0.588582 0.588188 0.588764 0.590747 0.593696 0.59658 0.601102 0.53441 0.509575 0.508635 0.508561 0.508793 0.509154 0.509857 0.536234 0.665543 0.665737 0.580429 0.502978 0.501812 0.501995 0.502249 0.502539 0.503496 0.543035 0.665126 0.664866 0.664788 0.664661 0.664666 0.664783 0.664765 0.664864 0.664754 0.664664 0.664619 0.664396 0.664296 0.664263 0.66481 0.664409 0.664451 0.664716 0.664791 0.664337 0.664443 0.664466 0.664285 0.659978 0.65164 0.646552 0.645187 0.630417 0.621398 0.620359 0.610529 0.603921 0.596607 0.59439 0.585136 0.581608 0.57107 0.567528 0.567144 0.567464 0.569899 0.569519 0.569895 0.568178 0.568566 0.566947 0.565157 0.564148 0.56661 0.564801 0.564549 0.565564 0.564514 0.563446 0.563104 0.561322 0.56101 0.560645 0.560218 0.559797 0.559401 0.558976 0.558562 0.558183 0.557809 0.557403 0.557043 0.556685 0.556289 0.555913 0.555571 0.555146 0.554827 0.554349 0.553821 0.553359 0.55281 0.552311 0.5518 0.551309 0.550768 0.550263 0.549795 0.549307 0.548796 0.549028 0.552118 0.555158 0.558227 0.555048 0.541109 0.540806 0.540543 0.540416 0.540016 0.541101 0.542359 0.542557 0.542701 0.542997 0.543119 0.543583 0.545341 0.546886 0.548387 0.54834 0.546314 0.542344 0.539471 0.540646 0.541949 0.542809 0.54523 0.545801 0.542423 0.538928 0.537429 0.536642 0.53652 0.536658 0.535095 0.533262 0.533262 0.532932 0.532715 0.532621 0.533742 0.537675 0.542448 0.551509 0.539864 0.536854 0.536651 0.536399 0.536189 0.535927 0.535694 0.535492 0.535363 0.535329 0.535317 0.535406 0.535457 0.535443 0.535567 0.536261 0.538284 0.541007 0.542662 0.544873 0.551995 0.558475 0.569941 0.623303 0.67143 0.681692 0.681904 0.682077 0.682386 0.682977 0.682928 0.683266 0.68366 0.683672 0.684234 0.684331 0.684822 0.684561 0.685193 0.685552 0.685296 0.686383 0.686157 0.686677 0.686965 0.687363 0.6879 0.688203 0.6877 0.688593 0.688839 0.689097 0.689614 0.689486 0.690389 0.690521 0.690454 0.69125 0.691392 0.691325 0.692046 0.691848 0.692923 0.693093 0.693623 0.693297 0.694087 0.694756 0.694895 0.694886 0.695376 0.695889 0.696011 0.696729 0.696614 0.696972 0.697701 0.698383 0.698131 0.698843 0.699375 0.699155 0.699914 0.699729 0.700459 0.70066 0.70104 0.701893 0.702135 0.7026 0.70293 0.70316 0.703332 0.703955 0.704149 0.704675 0.704948 0.70566 0.705782 0.706578 0.706797 0.707793 0.707272 0.708041 0.708128 0.709081 0.709563 0.709816 0.710262 0.710768 0.710944 0.711371 0.711849 0.711721 0.712521 0.712964 0.713425 0.713602 0.714505 0.714735 0.715058 0.715507 0.71615 0.716484 0.716745 0.717423 0.718005 0.718424 0.718771 0.719089 0.71988 0.720372 0.721 0.721246 0.721616 0.722068 0.722267 0.722949 0.723327 0.72395 0.724564 0.724871 0.72542 0.725768 0.726344 0.726584 0.727294 0.727516 0.72823 0.72855 0.729527 0.729399 0.729939 0.730255 0.731162 0.731916 0.73179 0.732455 0.732927 0.733795 0.733894 0.734777 0.735003 0.735937 0.736192 0.736891 0.737078 0.737649 0.738245 0.718391 0.525597 0.27262 0.0201747 0 0 0 0 0 0 0 0 0 0 0 0 0 0 0 0 0 0 0 0 0 0 0 0 0 0 0 0 0 0 0 0 0 0 0 0 0 0 0 0 0 0 0
0 0 0 0 0 0 0 0 0 0 0 0 0 0 0 0 0 0 0 0 0 0 0 0 0 0 0 0 0 0 0 0 0 0 0 0 0 0 0 0 0 0 0 0 0 0 0 0 0 0 0 0 0 0 0 0 0 0 0 0 0 0 0 0 0 0 0 0 0 0 0 0 0 0 0 0 0 0 0 0 0 0 0 0.00485205 0.14567 0.4036 0.6767 0.710749 0.710368 0.709864 0.709277 0.709012 0.708583 0.708276 0.707616 0.707089 0.706981 0.706326 0.705924 0.705831 0.705007 0.704754 0.704478 0.703879 0.703618 0.702641 0.702641 0.702133 0.701568 0.701228 0.700991 0.700614 0.69988 0.699831 0.699206 0.69898 0.698454 0.6979 0.697764 0.697048 0.696619 0.696819 0.696335 0.695566 0.694964 0.694869 0.695007 0.693963 0.693716 0.694142 0.692488 0.692392 0.692398 0.691996 0.691793 0.691035 0.690843 0.690462 0.690301 0.690128 0.689212 0.68919 0.688789 0.688389 0.687709 0.687711 0.687043 0.686911 0.686667 0.686487 0.685654 0.685292 0.684911 0.684686 0.684358 0.684094 0.68388 0.683589 0.683576 0.683181 0.682704 0.682225 0.681763 0.681823 0.681322 0.681 0.681025 0.680348 0.680083 0.679823 0.679478 0.679424 0.679002 0.678815 0.678429 0.67786 0.677374 0.677318 0.67717 0.676639 0.676506 0.676213 0.676005 0.675913 0.675227 0.675182 0.674859 0.674821 0.674312 0.673801 0.674159 0.67336 0.673194 0.673375 0.672297 0.67278 0.672345 0.671884 0.671851 0.672029 0.671341 0.671052 0.670824 0.670646 0.670295 0.669864 0.669999 0.669677 0.669431 0.669176 0.669245 0.668418 0.668591 0.668372 0.668163 0.667953 0.667761 0.667432 0.667456 0.666936 0.666925 0.666962 0.66652 0.666319 0.665963 0.665715 0.665617 0.66539 0.66495 0.665225 0.665191 0.664838 0.664328 0.664172 0.664242 0.663911 0.663648 0.663391 0.663854 0.663125 0.662998 0.662764 0.662795 0.662914 0.662559 0.662459 0.662187 0.662374 0.653447 0.60553 0.599205 0.598603 0.598015 0.597506 0.596825 0.59609 0.59557 0.595184 0.594807 0.594107 0.593305 0.592662 0.592042 0.591652 0.591086 0.590413 0.589834 0.589315 0.588805 0.589131 0.59104 0.593616 0.596819 0.613161 0.652082 0.559322 0.510022 0.509139 0.508983 0.50917 0.50948 0.510229 0.528495 0.658215 0.657483 0.600392 0.503762 0.502304 0.502282 0.502538 0.502802 0.503671 0.506574 0.657397 0.657337 0.657223 0.657119 0.656943 0.657227 0.656998 0.657277 0.656948 0.65686 0.656487 0.656781 0.656818 0.656623 0.656815 0.656961 0.656899 0.656547 0.656394 0.656657 0.656677 0.656329 0.656786 0.656432 0.656486 0.656881 0.656824 0.656546 0.656516 0.656291 0.656679 0.656146 0.656396 0.65662 0.6566 0.656809 0.656759 0.654201 0.645314 0.643351 0.635819 0.627985 0.62279 0.618255 0.614972 0.597269 0.59325 0.587986 0.586394 0.586107 0.575782 0.569176 0.564471 0.561613 0.561304 0.563025 0.563392 0.56102 0.561447 0.561158 0.559545 0.559882 0.559614 0.560717 0.559015 0.55804 0.557711 0.559456 0.557066 0.556794 0.556425 0.55673 0.555724 0.555249 0.554742 0.55425 0.553669 0.553179 0.552769 0.552206 0.55169 0.551195 0.550678 0.550202 0.549644 0.549673 0.55225 0.555359 0.558434 0.559355 0.541826 0.540944 0.540668 0.540521 0.54005 0.540767 0.542583 0.543871 0.544163 0.545085 0.548429 0.547926 0.547341 0.547195 0.54863 0.548464 0.548223 0.542134 0.53945 0.540683 0.542807 0.546642 0.546536 0.546449 0.546251 0.544765 0.540355 0.538582 0.53753 0.536653 0.534552 0.533512 0.533384 0.533056 0.532849 0.532864 0.534167 0.538625 0.543684 0.552623 0.54244 0.537693 0.537473 0.537279 0.537082 0.536856 0.536684 0.536414 0.536374 0.536363 0.536461 0.536576 0.536646 0.536978 0.539337 0.541185 0.542412 0.543523 0.552544 0.583659 0.612977 0.637 0.665427 0.673102 0.673571 0.673566 0.674037 0.673996 0.674016 0.674843 0.674926 0.675193 0.675427 0.67599 0.675887 0.676363 0.67676 0.677052 0.67727 0.677431 0.677611 0.678204 0.678249 0.67858 0.679146 0.679673 0.679275 0.679789 0.680034 0.68067 0.680803 0.681056 0.68125 0.681401 0.681915 0.681901 0.682605 0.682961 0.683242 0.683811 0.684088 0.684644 0.68441 0.68506 0.685173 0.685236 0.686028 0.686024 0.686796 0.687029 0.687445 0.688026 0.68812 0.68825 0.688529 0.689468 0.689193 0.689488 0.690401 0.690592 0.690674 0.69153 0.691707 0.691856 0.692109 0.693393 0.692753 0.693183 0.693399 0.694024 0.694634 0.69508 0.695094 0.695649 0.696 0.696417 0.696809 0.69738 0.69821 0.697914 0.698667 0.698676 0.699265 0.699888 0.700114 0.700707 0.700827 0.701463 0.701808 0.701993 0.702581 0.703156 0.703252 0.703759 0.704108 0.704537 0.705035 0.70545 0.705697 0.706229 0.706602 0.707135 0.707492 0.708048 0.708732 0.708578 0.709172 0.709958 0.710529 0.710739 0.711492 0.711722 0.712369 0.712308 0.712899 0.713706 0.71408 0.714311 0.714944 0.715497 0.715864 0.716034 0.716563 0.716636 0.717566 0.718499 0.718709 0.719426 0.719557 0.720394 0.720573 0.720901 0.72151 0.721922 0.722705 0.723022 0.723691 0.724011 0.724121 0.724998 0.725519 0.725994 0.726353 0.726983 0.727172 0.72825 0.728277 0.728613 0.729421 0.730305 0.730252 0.731111 0.73196 0.561013 0.355194 0.174962 0.00499439 0 0 0 0 0 0 0 0 0 0 0 0 0 0 0 0 0 0 0 0 0 0 0 0 0 0 0 0 0 0 0 0 0 0 0 0 0 0 0
0 0 0 0 0 0 0 0 0 0 0 0 0 0 0 0 0 0 0 0 0 0 0 0 0 0 0 0 0 0 0 0 0 0 0 0 0 0 0 0 0 0 0 0 0 0 0 0 0 0 0 0 0 0 0 0 0 0 0 0 0 0 0 0 0 0 0 0 0 0 0 0 0 0 0 0 0 0 0 0 0 0.120197 0.370585 0.602497 0.704024 0.703203 0.702991 0.702541 0.701968 0.701729 0.701386 0.700915 0.700194 0.700186 0.699731 0.699149 0.698816 0.698072 0.697662 0.697136 0.696938 0.696612 0.69614 0.696421 0.695428 0.694572 0.694818 0.693818 0.693688 0.693321 0.692961 0.692255 0.692066 0.691484 0.691087 0.690983 0.690433 0.6899 0.689872 0.689052 0.688586 0.688364 0.688271 0.687582 0.687428 0.68707 0.686756 0.686391 0.685704 0.685309 0.685465 0.684606 0.684434 0.683946 0.683247 0.683213 0.682982 0.682467 0.682231 0.681616 0.681547 0.681428 0.680707 0.680524 0.680316 0.679834 0.679371 0.679276 0.678661 0.678166 0.678025 0.677665 0.67738 0.677038 0.676485 0.676716 0.67601 0.67593 0.675342 0.675127 0.674746 0.674502 0.67426 0.673878 0.67349 0.672855 0.672837 0.672458 0.67222 0.671896 0.671615 0.671283 0.670903 0.671008 0.670569 0.669681 0.669694 0.669541 0.669122 0.669027 0.66837 0.668333 0.668117 0.668109 0.667773 0.66777 0.666931 0.666619 0.666521 0.666052 0.666358 0.665839 0.66541 0.665389 0.665337 0.664561 0.664705 0.664083 0.664105 0.663622 0.663455 0.663501 0.66311 0.662873 0.662547 0.662259 0.662035 0.661881 0.661903 0.661377 0.661224 0.661192 0.6607 0.660684 0.660379 0.660161 0.659621 0.659487 0.659677 0.659089 0.659238 0.659102 0.658606 0.65853 0.657993 0.6582 0.657949 0.658045 0.6575 0.657253 0.657133 0.6572 0.656894 0.656743 0.656678 0.656353 0.655898 0.655989 0.656132 0.655736 0.655328 0.655356 0.655071 0.654726 0.654952 0.654478 0.654423 0.654381 0.654234 0.649495 0.612005 0.598752 0.598125 0.597544 0.596976 0.596471 0.596006 0.595216 0.594562 0.59411 0.59365 0.59301 0.592377 0.591717 0.591149 0.590566 0.590035 0.589567 0.589672 0.591555 0.594705 0.598918 0.625575 0.650928 0.651177 0.567393 0.510377 0.509617 0.509424 0.509566 0.509861 0.510554 0.513841 0.65045 0.650193 0.639413 0.504495 0.50287 0.502579 0.502812 0.503019 0.503875 0.504634 0.632005 0.649714 0.649669 0.649307 0.64952 0.649601 0.649446 0.649231 0.649165 0.649304 0.649262 0.649177 0.649204 0.649166 0.64902 0.649076 0.64894 0.649253 0.64897 0.648865 0.649036 0.648664 0.648943 0.649055 0.648764 0.648883 0.649318 0.649127 0.649219 0.648612 0.648895 0.648846 0.648519 0.649026 0.649064 0.649274 0.649263 0.649136 0.64898 0.648881 0.64896 0.649176 0.649242 0.649299 0.649158 0.649182 0.649629 0.649296 0.64938 0.649243 0.649561 0.649381 0.649752 0.645713 0.639846 0.633339 0.631961 0.625663 0.619991 0.604793 0.612918 0.60099 0.597762 0.590086 0.581256 0.577278 0.568989 0.566206 0.564075 0.556329 0.556042 0.555734 0.555493 0.555128 0.554835 0.554422 0.554039 0.553647 0.553935 0.554894 0.553795 0.552661 0.551573 0.55179 0.550642 0.550272 0.552518 0.555453 0.560325 0.598972 0.577855 0.541098 0.54084 0.540579 0.540223 0.540245 0.541261 0.543724 0.545604 0.548697 0.555528 0.588044 0.547619 0.547422 0.548831 0.548613 0.547974 0.541408 0.539509 0.540719 0.541976 0.547116 0.546876 0.546637 0.546391 0.54616 0.545746 0.54301 0.53967 0.538375 0.534051 0.533753 0.533434 0.533198 0.532978 0.53308 0.534804 0.539894 0.566356 0.607086 0.564725 0.538548 0.538416 0.538266 0.538043 0.537901 0.537698 0.537621 0.53756 0.537684 0.537868 0.55989 0.578936 0.577286 0.592189 0.606859 0.609347 0.619892 0.658253 0.66425 0.664049 0.664701 0.66514 0.66523 0.665661 0.6656 0.666139 0.666217 0.666625 0.666338 0.667283 0.666978 0.667765 0.66768 0.667923 0.668591 0.668831 0.669051 0.669338 0.669656 0.670037 0.669726 0.670223 0.670828 0.670987 0.671723 0.671861 0.67188 0.671815 0.6724 0.672817 0.67311 0.673756 0.674071 0.674132 0.674532 0.675142 0.6748 0.675371 0.675313 0.675808 0.6765 0.677107 0.677171 0.677057 0.677726 0.677736 0.678429 0.678672 0.678908 0.679346 0.679454 0.680058 0.680646 0.680821 0.681177 0.681402 0.681717 0.682417 0.682549 0.683012 0.683224 0.683632 0.68382 0.684168 0.684906 0.684999 0.685389 0.685581 0.686295 0.68683 0.687368 0.687443 0.687671 0.687899 0.688603 0.688334 0.689331 0.68968 0.690128 0.69056 0.690582 0.690808 0.691605 0.692381 0.692531 0.692894 0.693354 0.693509 0.693842 0.694567 0.694379 0.69523 0.696118 0.695989 0.69647 0.696906 0.697202 0.698206 0.697999 0.698554 0.698988 0.699435 0.700067 0.700369 0.700818 0.701261 0.701693 0.702146 0.702274 0.703049 0.70342 0.704244 0.704278 0.705004 0.705408 0.705752 0.705829 0.706188 0.707015 0.707679 0.707714 0.708347 0.708731 0.709348 0.710098 0.709874 0.710846 0.711232 0.711949 0.712206 0.713027 0.713201 0.713662 0.713768 0.714687 0.715146 0.715596 0.716161 0.716671 0.717145 0.717667 0.717866 0.718371 0.719204 0.719553 0.720588 0.720836 0.720962 0.721621 0.722224 0.722536 0.722869 0.723418 0.723991 0.724475 0.640227 0.416599 0.232854 0.0148504 0 0 0 0 0 0 0 0 0 0 0 0 0 0 0 0 0 0 0 0 0 0 0 0 0 0 0 0 0 0 0 0 0 0 0 0
0 0 0 0 0 0 0 0 0 0 0 0 0 0 0 0 0 0 0 0 0 0 0 0 0 0 0 0 0 0 0 0 0 0 0 0 0 0 0 0 0 0 0 0 0 0 0 0 0 0 0 0 0 0 0 0 0 0 0 0 0 0 0 0 0 0 0 0 0 0 0 0 0 0 0 0 0 0 0.0857008 0.328984 0.515742 0.697096 0.69683 0.696269 0.695861 0.69536 0.694789 0.69435 0.69414 0.693659 0.69336 0.692742 0.692503 0.692044 0.691376 0.690867 0.691086 0.689954 0.689466 0.689472 0.688794 0.688606 0.68825 0.687573 0.687425 0.68709 0.686628 0.685944 0.685745 0.685284 0.68511 0.684562 0.68385 0.683341 0.683153 0.682995 0.682485 0.682103 0.682058 0.681246 0.680648 0.680535 0.680071 0.679574 0.679369 0.679178 0.678925 0.678364 0.677738 0.677557 0.677075 0.676754 0.676738 0.675953 0.675747 0.675257 0.675164 0.674634 0.674442 0.673887 0.673667 0.673334 0.673076 0.67256 0.672079 0.672023 0.671411 0.671076 0.670661 0.670458 0.670122 0.670032 0.669584 0.669278 0.668822 0.668525 0.668404 0.667665 0.667762 0.667268 0.666967 0.666387 0.66635 0.665781 0.665749 0.665344 0.665109 0.664621 0.664479 0.664089 0.664001 0.663986 0.663273 0.663352 0.662585 0.662376 0.662173 0.662128 0.6617 0.661497 0.660921 0.660823 0.66054 0.660119 0.660026 0.659626 0.659503 0.659369 0.658961 0.658439 0.658595 0.658414 0.657866 0.657959 0.657305 0.657249 0.656662 0.656369 0.65643 0.655982 0.656262 0.655912 0.655569 0.65528 0.655076 0.654379 0.654323 0.654403 0.654173 0.653957 0.653634 0.653204 0.653294 0.653002 0.652891 0.652405 0.652233 0.65206 0.651796 0.651895 0.651845 0.650903 0.651175 0.651067 0.650931 0.650476 0.6505 0.650357 0.649821 0.650013 0.649545 0.64958 0.649279 0.649021 0.649091 0.648798 0.648656 0.648672 0.648251 0.647906 0.647664 0.647843 0.647694 0.647576 0.64756 0.647258 0.647182 0.646947 0.646752 0.64642 0.64562 0.616604 0.598338 0.597722 0.597144 0.596539 0.595919 0.595349 0.594744 0.594148 0.593614 0.593026 0.592447 0.591893 0.591319 0.590744 0.590445 0.590991 0.593923 0.601693 0.621447 0.637507 0.643831 0.643861 0.64383 0.574593 0.510742 0.510085 0.509808 0.509938 0.510221 0.510902 0.515033 0.643183 0.642709 0.642869 0.52204 0.50348 0.50286 0.503089 0.503279 0.503993 0.504768 0.59938 0.642169 0.642255 0.642097 0.64214 0.64211 0.641689 0.641747 0.641809 0.641988 0.641568 0.641986 0.641796 0.641968 0.641436 0.641762 0.641598 0.641438 0.641659 0.641784 0.641457 0.641248 0.641379 0.641375 0.641472 0.641776 0.641499 0.641357 0.641651 0.641217 0.641575 0.641435 0.641614 0.641876 0.64168 0.64199 0.641559 0.641209 0.642017 0.641753 0.641853 0.641872 0.641762 0.641915 0.64173 0.641907 0.641701 0.641998 0.642143 0.641905 0.642224 0.642316 0.642033 0.642346 0.642124 0.642292 0.64281 0.642597 0.642503 0.642706 0.64267 0.642822 0.643152 0.642671 0.642738 0.642937 0.643441 0.643519 0.64325 0.643394 0.640242 0.631163 0.622706 0.623667 0.613705 0.600033 0.599123 0.586473 0.575303 0.576192 0.562339 0.552159 0.551151 0.550781 0.55042 0.550161 0.552109 0.582067 0.637641 0.645405 0.62177 0.541265 0.540969 0.540688 0.540535 0.540034 0.540464 0.54202 0.544604 0.547207 0.549865 0.603264 0.583446 0.547628 0.549004 0.54876 0.547082 0.541086 0.539663 0.540749 0.541638 0.546367 0.547012 0.546785 0.546549 0.546311 0.546071 0.554838 0.611044 0.565359 0.533896 0.533867 0.533555 0.533342 0.533115 0.533418 0.536126 0.542375 0.626396 0.652444 0.60446 0.540094 0.539983 0.539789 0.539692 0.539491 0.541664 0.546039 0.551298 0.592609 0.630735 0.654719 0.65487 0.655406 0.655697 0.655934 0.656053 0.656289 0.656346 0.656674 0.657123 0.657203 0.657564 0.65748 0.658011 0.657791 0.658423 0.658303 0.658513 0.659321 0.659691 0.659682 0.660151 0.659999 0.660447 0.660816 0.661118 0.661766 0.661661 0.661752 0.662144 0.662327 0.662813 0.66277 0.66326 0.663491 0.663857 0.664338 0.664508 0.664773 0.665198 0.66557 0.665884 0.666111 0.666467 0.666689 0.666882 0.667275 0.667594 0.668014 0.66829 0.66816 0.669006 0.669331 0.669411 0.669842 0.670235 0.670846 0.670842 0.671049 0.671806 0.671514 0.6723 0.672531 0.672912 0.673408 0.673634 0.674079 0.673991 0.674461 0.675021 0.675427 0.675898 0.675939 0.676369 0.677088 0.677185 0.677655 0.67806 0.678478 0.678531 0.678997 0.679538 0.679869 0.680096 0.680432 0.680924 0.681077 0.681458 0.681813 0.682371 0.683058 0.682766 0.683637 0.684255 0.684535 0.68484 0.685108 0.685432 0.685997 0.686425 0.687173 0.687216 0.687698 0.688056 0.68872 0.688922 0.689362 0.68992 0.690192 0.690648 0.691274 0.69135 0.692096 0.692107 0.692935 0.693227 0.693485 0.693766 0.694655 0.6948 0.695324 0.695918 0.69615 0.697169 0.696684 0.697861 0.698147 0.698163 0.698834 0.699197 0.699943 0.700728 0.700613 0.701147 0.701761 0.701903 0.70228 0.703335 0.703515 0.70411 0.704847 0.705167 0.705295 0.705768 0.706432 0.70679 0.707289 0.70792 0.707922 0.708832 0.709037 0.709625 0.709786 0.711011 0.711436 0.711729 0.712318 0.71311 0.713005 0.71396 0.714525 0.714898 0.715483 0.715613 0.71632 0.717223 0.717311 0.717346 0.673804 0.476791 0.270003 0.0735954 0 0 0 0 0 0 0 0 0 0 0 0 0 0 0 0 0 0 0 0 0 0 0 0 0 0 0 0 0 0 0 0 0
0 0 0 0 0 0 0 0 0 0 0 0 0 0 0 0 0 0 0 0 0 0 0 0 0 0 0 0 0 0 0 0 0 0 0 0 0 0 0 0 0 0 0 0 0 0 0 0 0 0 0 0 0 0 0 0 0 0 0 0 0 0 0 0 0 0 0 0 0 0 0 0 0 0 0 0.0377296 0.273844 0.543578 0.680925 0.690236 0.689679 0.689534 0.688938 0.68838 0.687834 0.68772 0.687339 0.686914 0.686139 0.685561 0.685039 0.684925 0.68431 0.683859 0.683608 0.683106 0.682978 0.682419 0.681999 0.681594 0.680915 0.680654 0.680491 0.680123 0.679466 0.678987 0.678464 0.678213 0.677826 0.677392 0.677135 0.676613 0.67647 0.675959 0.675832 0.674965 0.67486 0.674304 0.673979 0.673415 0.673175 0.672846 0.672498 0.672359 0.671745 0.671368 0.670899 0.670487 0.669956 0.669966 0.669463 0.669452 0.668871 0.66846 0.667862 0.667648 0.667448 0.667231 0.666533 0.666243 0.665652 0.665791 0.665216 0.665251 0.664716 0.664297 0.664148 0.663408 0.663284 0.663399 0.662569 0.66239 0.661807 0.661849 0.66138 0.661037 0.660825 0.66048 0.660267 0.65986 0.659697 0.658875 0.658929 0.658431 0.658113 0.657881 0.657546 0.657392 0.656961 0.656515 0.656275 0.656221 0.65593 0.655617 0.655269 0.655024 0.654657 0.654413 0.654258 0.653836 0.653751 0.653467 0.652917 0.652617 0.652671 0.652104 0.65221 0.652088 0.651376 0.65122 0.651138 0.651004 0.650357 0.650355 0.649852 0.649661 0.649454 0.649235 0.648755 0.648986 0.648455 0.648128 0.64828 0.647814 0.647605 0.647633 0.646788 0.646721 0.646682 0.646313 0.646349 0.645871 0.645793 0.645503 0.645449 0.645249 0.645066 0.645065 0.644494 0.644423 0.644198 0.644043 0.643794 0.643568 0.643665 0.642978 0.643211 0.643066 0.642394 0.642563 0.642257 0.642041 0.642163 0.641505 0.641425 0.641313 0.641511 0.641246 0.641169 0.640985 0.640377 0.640294 0.640325 0.640215 0.640122 0.639919 0.639777 0.639504 0.639208 0.639055 0.639226 0.63915 0.624339 0.605464 0.597339 0.596699 0.596079 0.595522 0.594949 0.594338 0.593731 0.593176 0.592582 0.592037 0.5916 0.591792 0.599506 0.612552 0.630001 0.636582 0.636848 0.63644 0.63643 0.636618 0.636353 0.580603 0.511118 0.510438 0.510199 0.510345 0.510582 0.511203 0.513372 0.635886 0.635636 0.635517 0.550287 0.504123 0.50316 0.503348 0.503509 0.50417 0.504878 0.567683 0.634817 0.634954 0.635099 0.634627 0.634836 0.634915 0.634528 0.634835 0.634728 0.634887 0.634561 0.634394 0.634457 0.634541 0.634342 0.634161 0.634317 0.634551 0.63416 0.634369 0.634663 0.634274 0.634228 0.634248 0.634095 0.634177 0.63422 0.63407 0.634473 0.63442 0.634312 0.634501 0.634121 0.634724 0.634326 0.63445 0.634494 0.634445 0.63472 0.634289 0.634645 0.634466 0.63452 0.634457 0.634552 0.634764 0.634472 0.63477 0.634993 0.634655 0.635026 0.635011 0.635123 0.635066 0.635155 0.635089 0.635153 0.635408 0.635502 0.635441 0.635546 0.635451 0.635691 0.635606 0.635724 0.63589 0.63583 0.636015 0.635938 0.636295 0.636321 0.636443 0.636331 0.636595 0.636481 0.636782 0.636882 0.637141 0.637044 0.637175 0.633749 0.626121 0.617011 0.599805 0.599317 0.613463 0.638167 0.638029 0.638108 0.638151 0.561279 0.541102 0.540844 0.540628 0.540384 0.540061 0.54087 0.543025 0.54568 0.548033 0.55108 0.587185 0.626631 0.613507 0.553764 0.54598 0.540681 0.539656 0.540613 0.541533 0.545688 0.547169 0.546923 0.546676 0.54644 0.579619 0.632446 0.620074 0.537497 0.534173 0.533959 0.533699 0.533481 0.533336 0.534293 0.539463 0.568106 0.64461 0.644563 0.642001 0.619759 0.622713 0.630948 0.641303 0.643788 0.645666 0.646342 0.646402 0.646846 0.647292 0.647538 0.647477 0.647614 0.647811 0.648286 0.648269 0.648871 0.648995 0.649153 0.649644 0.649756 0.649961 0.650368 0.650444 0.650751 0.650936 0.651142 0.651506 0.651914 0.652161 0.652327 0.652785 0.652758 0.653122 0.653256 0.653705 0.653943 0.654 0.654383 0.654551 0.655147 0.655713 0.655731 0.655903 0.655955 0.656411 0.656688 0.656879 0.65736 0.657189 0.658055 0.658558 0.658598 0.659036 0.658807 0.659212 0.66012 0.660229 0.660586 0.660753 0.660822 0.661125 0.661851 0.662036 0.662211 0.662554 0.662938 0.662987 0.663236 0.663745 0.664287 0.664681 0.66512 0.6652 0.665574 0.666037 0.666456 0.666841 0.667023 0.667384 0.667686 0.66806 0.668468 0.668654 0.668652 0.669595 0.669896 0.670481 0.670779 0.67095 0.671338 0.67169 0.67219 0.672254 0.672903 0.673416 0.673688 0.674009 0.674378 0.674901 0.675157 0.675687 0.676038 0.676397 0.676833 0.677259 0.677389 0.678071 0.678365 0.678374 0.679094 0.679398 0.679823 0.680283 0.680899 0.680893 0.681528 0.681948 0.682506 0.682856 0.6828 0.683525 0.683986 0.684583 0.685054 0.685096 0.685776 0.686346 0.686405 0.686993 0.687504 0.687967 0.687964 0.688471 0.689156 0.689754 0.690363 0.690523 0.690835 0.691636 0.69172 0.692501 0.692646 0.693242 0.69402 0.694187 0.694705 0.695105 0.695419 0.695999 0.696784 0.696936 0.697531 0.697805 0.698323 0.698801 0.699147 0.699648 0.700168 0.700544 0.701449 0.70167 0.702478 0.702767 0.703142 0.703598 0.704431 0.704724 0.704907 0.705466 0.706196 0.706881 0.70722 0.707369 0.708396 0.708817 0.7092 0.709773 0.710128 0.71068 0.711281 0.701955 0.599446 0.316325 0.0778221 0.00485991 0 0 0 0 0 0 0 0 0 0 0 0 0 0 0 0 0 0 0 0 0 0 0 0 0 0 0 0 0
0 0 0 0 0 0 0 0 0 0 0 0 0 0 0 0 0 0 0 0 0 0 0 0 0 0 0 0 0 0 0 0 0 0 0 0 0 0 0 0 0 0 0 0 0 0 0 0 0 0 0 0 0 0 0 0 0 0 0 0 0 0 0 0 0 0 0 0 0 0 0 0 0.0280192 0.187026 0.444598 0.665234 0.683691 0.683518 0.682753 0.682444 0.682066 0.681622 0.68123 0.680974 0.680337 0.679966 0.679224 0.679106 0.678519 0.678263 0.67754 0.677217 0.676785 0.676416 0.675936 0.675797 0.675068 0.674587 0.674311 0.673869 0.67339 0.673348 0.6727 0.672003 0.671614 0.671421 0.671035 0.670574 0.670446 0.66975 0.66929 0.66913 0.668908 0.668674 0.667991 0.66747 0.667322 0.667073 0.666133 0.665695 0.665718 0.665304 0.664838 0.664626 0.66414 0.664054 0.663437 0.663081 0.662875 0.662513 0.661933 0.661535 0.661548 0.660855 0.660882 0.660115 0.659931 0.659791 0.65901 0.658993 0.658622 0.658086 0.658122 0.657168 0.657164 0.656876 0.656336 0.655891 0.65563 0.655433 0.655126 0.654899 0.654573 0.654514 0.653951 0.653465 0.65339 0.652873 0.652464 0.652212 0.652243 0.651544 0.651259 0.651267 0.651058 0.650455 0.650598 0.650067 0.649795 0.649379 0.649139 0.648646 0.648464 0.64835 0.647976 0.647373 0.647065 0.646891 0.646577 0.64681 0.646276 0.64611 0.645857 0.645391 0.645239 0.644591 0.644759 0.644407 0.644272 0.643884 0.643749 0.643433 0.643321 0.643093 0.642541 0.642531 0.64235 0.642113 0.641753 0.641551 0.641316 0.641291 0.640825 0.640683 0.640256 0.640083 0.639869 0.639539 0.639382 0.639415 0.638911 0.639159 0.638415 0.638416 0.638387 0.637854 0.637991 0.637552 0.637248 0.637239 0.637036 0.636441 0.636567 0.636411 0.63629 0.635878 0.636159 0.635391 0.635816 0.63544 0.634994 0.634885 0.634762 0.634435 0.634364 0.634468 0.634183 0.633688 0.633748 0.633788 0.633236 0.633378 0.633114 0.633329 0.632617 0.632728 0.632741 0.632549 0.63222 0.631992 0.63194 0.632042 0.631873 0.631807 0.625687 0.610263 0.598547 0.595861 0.59525 0.594606 0.594013 0.593626 0.597574 0.604746 0.6168 0.624619 0.630208 0.630252 0.629483 0.629927 0.629753 0.629866 0.629394 0.629151 0.629458 0.587478 0.511538 0.510795 0.510546 0.510693 0.510924 0.51158 0.51303 0.62866 0.628589 0.628609 0.563173 0.504689 0.503579 0.503619 0.503775 0.504257 0.505029 0.549141 0.627695 0.627734 0.627953 0.627394 0.627644 0.627802 0.627812 0.627355 0.627293 0.62753 0.627808 0.627299 0.627397 0.627414 0.62718 0.627244 0.627437 0.627322 0.627324 0.627174 0.627256 0.627512 0.627347 0.627244 0.627222 0.627091 0.627191 0.62704 0.627121 0.627387 0.627235 0.626831 0.627516 0.627227 0.627036 0.627361 0.62713 0.627409 0.627459 0.627216 0.627523 0.62751 0.627598 0.627746 0.627439 0.627593 0.627511 0.627914 0.627705 0.627529 0.627756 0.627762 0.627711 0.628112 0.627904 0.628023 0.628503 0.628231 0.628247 0.62811 0.628341 0.628465 0.628621 0.628649 0.62891 0.628488 0.628655 0.628929 0.628886 0.629239 0.629245 0.629373 0.629517 0.629392 0.629711 0.629744 0.629591 0.629891 0.629833 0.630116 0.630204 0.630398 0.630305 0.630419 0.630688 0.630954 0.631093 0.631126 0.630821 0.631026 0.599857 0.541278 0.540977 0.540717 0.540575 0.540092 0.540253 0.54149 0.543529 0.545646 0.547684 0.549494 0.570073 0.625298 0.623716 0.555167 0.540486 0.539681 0.54056 0.541475 0.545066 0.547314 0.547059 0.556762 0.614409 0.635316 0.632856 0.544787 0.534407 0.534469 0.53406 0.53385 0.533627 0.533862 0.536707 0.542325 0.612318 0.637635 0.637797 0.63782 0.637769 0.638193 0.638644 0.638598 0.638473 0.639156 0.639055 0.639366 0.639362 0.639793 0.640399 0.640537 0.640662 0.640865 0.641277 0.641199 0.641681 0.641712 0.641937 0.642349 0.642417 0.643077 0.643001 0.643179 0.643467 0.643938 0.643875 0.644416 0.644635 0.644952 0.644682 0.645025 0.645434 0.645651 0.646089 0.645985 0.646588 0.646875 0.64713 0.647309 0.647454 0.647887 0.648529 0.648397 0.648922 0.649007 0.649447 0.649789 0.650004 0.650306 0.650473 0.650988 0.651295 0.651554 0.651667 0.652106 0.65248 0.652333 0.653141 0.652996 0.653448 0.653857 0.654361 0.654308 0.654772 0.655665 0.655721 0.655987 0.656443 0.656399 0.657101 0.657207 0.657664 0.657756 0.658317 0.658967 0.65875 0.659232 0.659465 0.659954 0.660256 0.660591 0.661054 0.661288 0.662052 0.662222 0.662621 0.662674 0.663197 0.663342 0.663575 0.664361 0.66465 0.664544 0.665239 0.665298 0.666038 0.666308 0.66665 0.667239 0.667513 0.667745 0.668689 0.668887 0.669146 0.669493 0.669659 0.670327 0.670509 0.671021 0.671498 0.671592 0.672725 0.672798 0.673373 0.673485 0.673992 0.674211 0.674608 0.67507 0.675725 0.675977 0.676313 0.676623 0.677303 0.677747 0.677903 0.678747 0.678964 0.679629 0.679701 0.680194 0.680643 0.681191 0.681622 0.681949 0.682307 0.683037 0.683158 0.683615 0.684143 0.684856 0.685203 0.685269 0.68601 0.686725 0.686764 0.687123 0.688121 0.688131 0.688681 0.689355 0.68977 0.690329 0.690678 0.691107 0.691439 0.691821 0.69267 0.692611 0.693564 0.69396 0.694321 0.694646 0.695108 0.695649 0.696275 0.696739 0.697171 0.697952 0.698523 0.698377 0.699086 0.699668 0.700008 0.700809 0.701125 0.701652 0.702511 0.702699 0.703359 0.703385 0.704253 0.704991 0.704854 0.608476 0.381277 0.202506 0.00963673 0 0 0 0 0 0 0 0 0 0 0 0 0 0 0 0 0 0 0 0 0 0 0 0 0 0
0 0 0 0 0 0 0 0 0 0 0 0 0 0 0 0 0 0 0 0 0 0 0 0 0 0 0 0 0 0 0 0 0 0 0 0 0 0 0 0 0 0 0 0 0 0 0 0 0 0 0 0 0 0 0 0 0 0 0 0 0 0 0 0 0 0 0 0 0 0.00462892 0.166746 0.426554 0.621905 0.677404 0.677072 0.67687 0.676173 0.675418 0.675205 0.674971 0.674592 0.674003 0.673499 0.673079 0.672356 0.672372 0.671794 0.671345 0.67103 0.670416 0.670235 0.670075 0.669491 0.668667 0.668441 0.668056 0.667707 0.667031 0.667084 0.666644 0.666383 0.665425 0.665091 0.665092 0.664598 0.663982 0.663686 0.663563 0.662505 0.66252 0.662172 0.661824 0.661286 0.661052 0.660063 0.660521 0.659639 0.659261 0.659096 0.658737 0.658404 0.658036 0.65752 0.657207 0.656846 0.656578 0.655935 0.655529 0.65529 0.655168 0.654595 0.654295 0.654003 0.653165 0.653169 0.65295 0.652501 0.652208 0.651758 0.651577 0.651339 0.650863 0.650517 0.650303 0.650144 0.649411 0.648953 0.648741 0.648915 0.648595 0.647935 0.647658 0.647113 0.646947 0.646701 0.646286 0.646226 0.645811 0.645317 0.645262 0.644936 0.644535 0.644253 0.644418 0.643836 0.643524 0.64296 0.642936 0.642925 0.642347 0.641877 0.641718 0.641025 0.641029 0.640828 0.640522 0.640314 0.639985 0.639799 0.639537 0.63927 0.638586 0.638516 0.638378 0.638145 0.637986 0.637506 0.637118 0.636977 0.637026 0.636572 0.636044 0.635792 0.635897 0.635368 0.635291 0.635423 0.634848 0.635019 0.634601 0.634386 0.633792 0.63351 0.633627 0.633495 0.63323 0.633079 0.632946 0.632321 0.63231 0.631892 0.631502 0.631692 0.631476 0.631215 0.63108 0.630561 0.630577 0.63033 0.630232 0.629645 0.629516 0.629647 0.62951 0.629354 0.629145 0.628849 0.628812 0.628443 0.62813 0.628418 0.628045 0.628034 0.628118 0.627467 0.627244 0.62722 0.627081 0.627031 0.626478 0.626363 0.626276 0.62603 0.626537 0.625591 0.625784 0.625816 0.62537 0.625218 0.624994 0.625055 0.624944 0.624659 0.624793 0.624731 0.624397 0.623949 0.622418 0.619841 0.618341 0.615499 0.617144 0.623641 0.623348 0.623071 0.623255 0.623243 0.62295 0.622791 0.622758 0.622611 0.622718 0.622601 0.622421 0.62242 0.594801 0.512219 0.511172 0.510873 0.510991 0.511259 0.51192 0.517152 0.621314 0.621764 0.621388 0.584404 0.505321 0.504035 0.503919 0.504063 0.50445 0.505189 0.550685 0.621005 0.62094 0.620597 0.620811 0.620727 0.62092 0.620809 0.620639 0.620594 0.620836 0.620769 0.620549 0.620487 0.6204 0.620533 0.620511 0.620391 0.620229 0.62058 0.62024 0.620277 0.62029 0.620121 0.620077 0.620577 0.620485 0.62022 0.620423 0.620054 0.620154 0.620274 0.620257 0.620391 0.620545 0.62033 0.620867 0.620557 0.620296 0.620344 0.62066 0.620454 0.62007 0.620774 0.620682 0.620707 0.620862 0.620482 0.620825 0.620689 0.620778 0.621029 0.620861 0.621154 0.621173 0.621188 0.621006 0.620954 0.621334 0.621366 0.621222 0.62133 0.621749 0.62173 0.621853 0.622023 0.621908 0.621921 0.622152 0.621919 0.621909 0.622294 0.622206 0.622434 0.622727 0.622589 0.622624 0.622568 0.622806 0.623338 0.622986 0.623235 0.623301 0.623266 0.623542 0.62387 0.62392 0.624034 0.623865 0.624568 0.624557 0.621906 0.55945 0.54114 0.540865 0.540584 0.540447 0.539935 0.540286 0.541075 0.542732 0.544905 0.546584 0.548688 0.559695 0.602426 0.558114 0.540652 0.539835 0.540726 0.541677 0.559556 0.608828 0.616271 0.627619 0.628005 0.628423 0.573709 0.53475 0.534858 0.534462 0.534209 0.533989 0.533843 0.534667 0.539415 0.562996 0.630007 0.630463 0.630864 0.63064 0.630987 0.630827 0.63149 0.631535 0.631767 0.632248 0.632145 0.632577 0.63261 0.632813 0.633015 0.633147 0.63327 0.633993 0.633838 0.634282 0.634425 0.63438 0.635059 0.634944 0.635413 0.635733 0.636019 0.635726 0.636366 0.636562 0.636789 0.637002 0.63745 0.637801 0.637802 0.638384 0.63828 0.638374 0.638752 0.639294 0.639362 0.639735 0.639875 0.640262 0.640633 0.640881 0.641087 0.641242 0.641765 0.641632 0.642138 0.642449 0.642649 0.643372 0.643229 0.64355 0.644038 0.644355 0.64456 0.644624 0.645214 0.645766 0.64581 0.646255 0.646295 0.646923 0.646859 0.647449 0.647475 0.648255 0.647955 0.648316 0.649029 0.649319 0.649728 0.649657 0.650339 0.650478 0.650646 0.651251 0.651727 0.651656 0.652164 0.652464 0.652897 0.653375 0.653697 0.654064 0.65417 0.654754 0.65473 0.655506 0.656035 0.656173 0.656282 0.656798 0.656798 0.657337 0.658327 0.658395 0.658872 0.659182 0.659348 0.659964 0.660073 0.660505 0.660814 0.66126 0.661964 0.662145 0.662292 0.662973 0.663192 0.663252 0.664169 0.664429 0.665182 0.665562 0.665338 0.665718 0.666667 0.666778 0.667278 0.667739 0.668081 0.668323 0.668835 0.669423 0.669551 0.670341 0.670851 0.670948 0.671301 0.671365 0.672268 0.672948 0.673076 0.673365 0.674103 0.67452 0.674733 0.675137 0.675749 0.676307 0.677022 0.676848 0.677277 0.678019 0.67818 0.679154 0.679251 0.679772 0.680165 0.680651 0.681323 0.681249 0.68194 0.682713 0.683068 0.683698 0.68414 0.684439 0.684617 0.685228 0.685848 0.686138 0.686537 0.687172 0.687703 0.688096 0.688647 0.688779 0.689686 0.690036 0.690384 0.691029 0.69141 0.691957 0.692428 0.69282 0.693417 0.694009 0.694398 0.695038 0.695503 0.695905 0.696623 0.696997 0.697609 0.69766 0.69834 0.698865 0.650909 0.444995 0.282142 0.047779 0 0 0 0 0 0 0 0 0 0 0 0 0 0 0 0 0 0 0 0 0 0 0
0 0 0 0 0 0 0 0 0 0 0 0 0 0 0 0 0 0 0 0 0 0 0 0 0 0 0 0 0 0 0 0 0 0 0 0 0 0 0 0 0 0 0 0 0 0 0 0 0 0 0 0 0 0 0 0 0 0 0 0 0 0 0 0 0 0 0 0.1193 0.340045 0.634751 0.671613 0.671026 0.670628 0.670353 0.669217 0.66918 0.669035 0.668375 0.668212 0.667519 0.667026 0.66667 0.665962 0.665594 0.665609 0.664875 0.664412 0.664032 0.663588 0.663365 0.66288 0.662342 0.661867 0.66183 0.661576 0.660668 0.660191 0.660046 0.659524 0.658943 0.65887 0.658365 0.657815 0.657654 0.657236 0.656196 0.656456 0.656075 0.655753 0.655308 0.654733 0.654469 0.654037 0.653639 0.653408 0.652974 0.652428 0.652291 0.65181 0.651302 0.651102 0.65108 0.650504 0.649879 0.650022 0.649193 0.649172 0.648772 0.648302 0.648122 0.647561 0.647457 0.647065 0.646532 0.646165 0.64582 0.645435 0.645267 0.645264 0.64449 0.644179 0.643935 0.643537 0.64306 0.6428 0.642384 0.642236 0.641614 0.641733 0.64134 0.641272 0.640792 0.640171 0.639626 0.639672 0.63917 0.639066 0.639187 0.638275 0.638258 0.637956 0.63737 0.637187 0.63684 0.636511 0.636364 0.635904 0.635777 0.635608 0.635232 0.635384 0.634544 0.634541 0.63403 0.633609 0.633439 0.633354 0.632845 0.632753 0.632605 0.632164 0.63197 0.631621 0.631231 0.631359 0.63048 0.630734 0.630453 0.630192 0.629848 0.629554 0.629558 0.629213 0.628876 0.628475 0.628579 0.628326 0.628003 0.627888 0.627751 0.62731 0.627271 0.626808 0.626734 0.626287 0.62597 0.62574 0.625533 0.625877 0.625423 0.625307 0.6253 0.624758 0.624582 0.624222 0.624023 0.623932 0.623788 0.623719 0.623169 0.622775 0.622624 0.622416 0.622568 0.622471 0.622015 0.622129 0.621644 0.621503 0.621707 0.621339 0.620903 0.620908 0.620621 0.620653 0.620479 0.620496 0.620335 0.619958 0.619829 0.619375 0.619305 0.619259 0.619331 0.61905 0.619041 0.618734 0.618675 0.618526 0.618101 0.618231 0.618022 0.618012 0.617746 0.618098 0.617843 0.617442 0.617568 0.617326 0.617055 0.617328 0.616776 0.616835 0.616768 0.61622 0.616419 0.616362 0.616427 0.616129 0.616117 0.615772 0.615836 0.615524 0.615602 0.615878 0.591856 0.512824 0.51151 0.511175 0.511305 0.511581 0.512305 0.524867 0.614572 0.614698 0.614648 0.594876 0.506108 0.504511 0.504312 0.504414 0.504669 0.505385 0.546098 0.614093 0.614391 0.614118 0.613628 0.613713 0.614001 0.614103 0.613807 0.61391 0.613639 0.613671 0.613359 0.613236 0.613712 0.613491 0.613831 0.613645 0.613837 0.613597 0.613604 0.613503 0.613586 0.61332 0.613662 0.613819 0.613316 0.61338 0.613855 0.613264 0.613534 0.613289 0.613909 0.613646 0.613674 0.613742 0.613476 0.613541 0.613842 0.613841 0.613474 0.613839 0.613726 0.613984 0.614015 0.614229 0.613758 0.613881 0.61366 0.614012 0.613942 0.614068 0.614128 0.614331 0.614269 0.614177 0.614502 0.614559 0.61468 0.614517 0.614664 0.614925 0.614733 0.614787 0.615005 0.614629 0.615214 0.615181 0.615617 0.615142 0.615357 0.615705 0.615564 0.615746 0.615845 0.615748 0.615466 0.616017 0.616018 0.616117 0.616464 0.616311 0.616649 0.616664 0.616468 0.61687 0.617082 0.616822 0.617349 0.617274 0.617671 0.617758 0.602305 0.545045 0.541013 0.540741 0.540485 0.540276 0.539818 0.539951 0.540515 0.541919 0.543863 0.545831 0.547702 0.550013 0.543968 0.540927 0.54002 0.540904 0.541734 0.553634 0.620414 0.620741 0.6149 0.60408 0.570499 0.535419 0.535085 0.534865 0.534579 0.53435 0.534133 0.534272 0.536581 0.555284 0.62003 0.623296 0.623472 0.623398 0.623867 0.624076 0.62396 0.624353 0.624846 0.625043 0.625183 0.625249 0.625471 0.625401 0.625902 0.626162 0.626328 0.626736 0.626698 0.627145 0.62746 0.627645 0.627903 0.627773 0.628116 0.628196 0.628752 0.628887 0.62919 0.629689 0.629796 0.629958 0.630147 0.630209 0.630716 0.631089 0.631167 0.631445 0.631576 0.632103 0.632528 0.632748 0.632674 0.632841 0.633192 0.633276 0.633746 0.633934 0.634678 0.634699 0.635045 0.634845 0.635794 0.635779 0.636194 0.63617 0.636736 0.637 0.637033 0.637545 0.638012 0.638055 0.638104 0.638825 0.638794 0.639508 0.639634 0.639961 0.640442 0.640496 0.640987 0.64147 0.641617 0.641751 0.642264 0.642103 0.642983 0.643011 0.643376 0.643905 0.644122 0.64474 0.644839 0.64511 0.645604 0.645935 0.64623 0.646649 0.646841 0.647198 0.647796 0.648063 0.648472 0.648333 0.64867 0.64901 0.64974 0.650067 0.650538 0.650741 0.651386 0.651689 0.651671 0.652309 0.652888 0.652929 0.652978 0.653875 0.653986 0.654446 0.655331 0.655303 0.655472 0.656041 0.656282 0.657062 0.657063 0.657672 0.658291 0.658298 0.658904 0.658777 0.659115 0.660148 0.660458 0.660857 0.661138 0.661653 0.66203 0.662594 0.662956 0.663137 0.663468 0.66434 0.664368 0.664716 0.665276 0.665674 0.666095 0.666721 0.667141 0.667561 0.667683 0.668239 0.668638 0.668928 0.669336 0.670155 0.670685 0.671211 0.671683 0.672033 0.672726 0.672804 0.673477 0.673625 0.674093 0.674243 0.67513 0.675249 0.675316 0.676404 0.676895 0.677202 0.677416 0.67867 0.678977 0.679068 0.679399 0.68032 0.680669 0.68095 0.681932 0.681734 0.682582 0.682897 0.683522 0.683803 0.68458 0.685204 0.685675 0.685885 0.686365 0.686511 0.687443 0.688073 0.68828 0.689131 0.689243 0.689815 0.690161 0.690846 0.691237 0.691836 0.692388 0.692618 0.693466 0.526675 0.369957 0.12324 0 0 0 0 0 0 0 0 0 0 0 0 0 0 0 0 0 0 0 0
0 0 0 0 0 0 0 0 0 0 0 0 0 0 0 0 0 0 0 0 0 0 0 0 0 0 0 0 0 0 0 0 0 0 0 0 0 0 0 0 0 0 0 0 0 0 0 0 0 0 0 0 0 0 0 0 0 0 0 0 0 0 0 0 0.109131 0.291216 0.587855 0.665492 0.665231 0.664423 0.663975 0.663796 0.663265 0.662624 0.66254 0.662071 0.661714 0.660791 0.660762 0.660317 0.659953 0.659678 0.658875 0.658635 0.658241 0.658078 0.657168 0.65694 0.656526 0.656302 0.655817 0.65499 0.65454 0.654226 0.653966 0.65357 0.65312 0.652668 0.652841 0.651898 0.651652 0.651016 0.650988 0.650499 0.650078 0.649641 0.649166 0.648899 0.648422 0.647991 0.647685 0.647597 0.647157 0.646724 0.646124 0.646064 0.645385 0.645218 0.644753 0.644665 0.644109 0.643966 0.643481 0.642753 0.642416 0.64251 0.642134 0.641335 0.641163 0.64085 0.640524 0.640132 0.639641 0.639343 0.639154 0.63858 0.638266 0.638226 0.63782 0.637565 0.63696 0.63661 0.636725 0.635978 0.635956 0.635807 0.635163 0.635344 0.634616 0.634138 0.634039 0.633789 0.633298 0.632976 0.632588 0.632363 0.632185 0.632202 0.631682 0.631134 0.630952 0.630742 0.630216 0.630235 0.629861 0.629096 0.629045 0.628907 0.628647 0.628484 0.628005 0.627828 0.62773 0.627364 0.627109 0.626814 0.626403 0.626074 0.626032 0.625491 0.625257 0.625093 0.625115 0.624772 0.624266 0.62413 0.623704 0.623358 0.623309 0.623097 0.623234 0.622584 0.622232 0.622008 0.621643 0.621895 0.621556 0.621234 0.620993 0.620519 0.620977 0.620125 0.620225 0.619404 0.619676 0.61939 0.618979 0.618919 0.618419 0.618761 0.618638 0.618221 0.617993 0.617652 0.617554 0.617639 0.617229 0.616894 0.616816 0.61634 0.616347 0.616522 0.615972 0.615711 0.615877 0.615436 0.6154 0.615039 0.614873 0.614751 0.614668 0.614368 0.614537 0.614189 0.614069 0.613838 0.61339 0.613442 0.613354 0.613142 0.613 0.612742 0.612522 0.612412 0.612296 0.612021 0.61224 0.612008 0.611578 0.611486 0.611391 0.611527 0.61108 0.611083 0.610921 0.6109 0.610754 0.610819 0.61054 0.610387 0.610263 0.610109 0.610272 0.610261 0.609648 0.609454 0.60942 0.609379 0.609357 0.609465 0.609301 0.609248 0.608996 0.60884 0.608901 0.604842 0.513304 0.511865 0.511514 0.511578 0.511902 0.512761 0.525758 0.608255 0.607993 0.60811 0.603033 0.507515 0.505018 0.504673 0.504726 0.504806 0.505604 0.53808 0.607369 0.607447 0.607513 0.607399 0.607598 0.607195 0.607432 0.60733 0.607233 0.606882 0.607303 0.607207 0.606848 0.607161 0.606986 0.607183 0.606785 0.60701 0.606996 0.606924 0.606861 0.606997 0.606847 0.607037 0.606878 0.60713 0.606941 0.606755 0.607051 0.606983 0.607067 0.607247 0.607216 0.607027 0.607043 0.607016 0.606828 0.607066 0.607312 0.607059 0.607136 0.607298 0.607151 0.607478 0.607185 0.607219 0.607422 0.607168 0.607558 0.607332 0.607794 0.607822 0.607033 0.607689 0.607768 0.607429 0.607854 0.60805 0.607882 0.607832 0.607831 0.608015 0.608093 0.608488 0.608231 0.608513 0.608455 0.608718 0.608604 0.608786 0.609034 0.609014 0.609046 0.609452 0.609748 0.609021 0.609193 0.609559 0.609582 0.609622 0.609935 0.609899 0.610007 0.609907 0.6102 0.610552 0.61049 0.610825 0.610707 0.610599 0.61131 0.61113 0.593347 0.541712 0.540894 0.540605 0.540379 0.540249 0.539719 0.539633 0.540059 0.541412 0.5429 0.544105 0.545003 0.543178 0.541039 0.540151 0.54104 0.541761 0.544127 0.556894 0.549232 0.541801 0.536828 0.535596 0.535399 0.53526 0.534947 0.534719 0.534497 0.534395 0.53564 0.550847 0.609407 0.616216 0.616579 0.616739 0.617066 0.617073 0.617395 0.61764 0.617806 0.617886 0.618109 0.61841 0.618552 0.618652 0.619143 0.619435 0.619691 0.619816 0.619649 0.619666 0.62039 0.620501 0.620739 0.620974 0.621263 0.621761 0.621673 0.62179 0.622064 0.62238 0.62277 0.622927 0.623143 0.623448 0.623522 0.623748 0.624216 0.624414 0.624852 0.624765 0.625035 0.625619 0.62546 0.625733 0.626145 0.626298 0.626714 0.627269 0.627321 0.62775 0.627936 0.628233 0.628266 0.628587 0.62879 0.629182 0.629326 0.629865 0.630383 0.630105 0.630498 0.630811 0.631269 0.63157 0.632102 0.63228 0.632366 0.632725 0.632903 0.633008 0.633546 0.6341 0.634485 0.634791 0.635015 0.635425 0.63541 0.635922 0.636377 0.636382 0.636737 0.637169 0.637614 0.637888 0.638347 0.638537 0.638755 0.639495 0.639276 0.640011 0.64026 0.640425 0.64086 0.640985 0.641377 0.642099 0.642124 0.642709 0.642706 0.643106 0.644017 0.644136 0.6443 0.644659 0.644986 0.645578 0.646104 0.646303 0.647168 0.646999 0.64736 0.647893 0.647965 0.648188 0.648993 0.64942 0.649775 0.650155 0.650569 0.650724 0.651078 0.651969 0.651671 0.652692 0.653069 0.653331 0.653828 0.654166 0.654435 0.654991 0.655163 0.655632 0.65605 0.656805 0.657428 0.657142 0.657775 0.658374 0.658743 0.659088 0.659546 0.659697 0.660214 0.660572 0.661098 0.661659 0.661985 0.662151 0.662843 0.6634 0.66397 0.664204 0.664521 0.66498 0.665396 0.66603 0.666393 0.666636 0.667222 0.667549 0.667979 0.668625 0.669133 0.669411 0.669952 0.670275 0.671263 0.671333 0.671857 0.672211 0.672936 0.673017 0.674001 0.67398 0.674521 0.675174 0.675597 0.675855 0.67664 0.677109 0.677319 0.677945 0.678302 0.679072 0.67975 0.679853 0.6804 0.680659 0.681238 0.682023 0.682382 0.683014 0.68314 0.683695 0.684338 0.684778 0.685553 0.686128 0.686039 0.686658 0.687348 0.546255 0.385674 0.155092 0.0187899 0 0 0 0 0 0 0 0 0 0 0 0 0 0 0 0
0 0 0 0 0 0 0 0 0 0 0 0 0 0 0 0 0 0 0 0 0 0 0 0 0 0 0 0 0 0 0 0 0 0 0 0 0 0 0 0 0 0 0 0 0 0 0 0 0 0 0 0 0 0 0 0 0 0 0 0 0 0.0540739 0.225559 0.546504 0.659592 0.659196 0.658646 0.658455 0.657838 0.657431 0.657349 0.656514 0.656271 0.655819 0.655199 0.654822 0.65428 0.653988 0.653482 0.653313 0.653002 0.65233 0.651831 0.651637 0.65076 0.650763 0.650659 0.649908 0.649479 0.649323 0.64893 0.648241 0.64769 0.647122 0.646947 0.646962 0.646443 0.646173 0.645506 0.645013 0.644618 0.644193 0.643951 0.643495 0.642902 0.643229 0.642359 0.642005 0.641824 0.641151 0.641182 0.640748 0.640175 0.6396 0.639606 0.638844 0.638654 0.63834 0.637984 0.637632 0.637213 0.637084 0.636533 0.636018 0.635568 0.63547 0.635099 0.634729 0.634221 0.634169 0.633764 0.633388 0.633197 0.632802 0.632724 0.631907 0.631696 0.631347 0.630666 0.630682 0.630581 0.630375 0.629829 0.629559 0.629187 0.628434 0.62859 0.628219 0.627861 0.627424 0.627016 0.626927 0.626411 0.626104 0.626194 0.62601 0.625404 0.624894 0.624783 0.624382 0.623998 0.623815 0.623627 0.623539 0.623098 0.622954 0.62245 0.622436 0.621998 0.62148 0.621373 0.621489 0.621009 0.620249 0.620122 0.62003 0.61952 0.61949 0.619303 0.618848 0.618954 0.618593 0.618302 0.61808 0.617472 0.617669 0.61748 0.61671 0.61686 0.616405 0.615995 0.616014 0.615501 0.615565 0.615454 0.614915 0.614835 0.614613 0.614216 0.61396 0.61388 0.613739 0.613486 0.613232 0.613023 0.612549 0.612592 0.612757 0.612121 0.612032 0.611749 0.611521 0.611188 0.611219 0.61104 0.610766 0.610739 0.610373 0.610101 0.610128 0.610149 0.609545 0.60968 0.609427 0.608976 0.60897 0.608798 0.608495 0.608392 0.608303 0.607855 0.608075 0.607517 0.607481 0.607483 0.607293 0.607361 0.606985 0.60662 0.606814 0.606225 0.606336 0.606304 0.605847 0.6058 0.605924 0.605146 0.605467 0.60545 0.605375 0.605034 0.604919 0.604937 0.604551 0.604303 0.604266 0.604425 0.604167 0.604136 0.603964 0.603591 0.604004 0.603652 0.603656 0.603554 0.603457 0.603299 0.603264 0.603212 0.602976 0.602752 0.602889 0.602426 0.60265 0.602518 0.60253 0.516844 0.512259 0.511821 0.511859 0.512167 0.513078 0.529271 0.601877 0.601557 0.601474 0.601731 0.521631 0.505611 0.505086 0.505015 0.505027 0.505809 0.538296 0.60115 0.601114 0.60092 0.601033 0.600777 0.600828 0.601033 0.600902 0.600969 0.600665 0.600606 0.600696 0.600547 0.600529 0.600739 0.600796 0.600605 0.600388 0.600545 0.600304 0.600488 0.60059 0.600661 0.600462 0.60037 0.600457 0.600515 0.60052 0.600713 0.600661 0.600524 0.60068 0.600637 0.600397 0.600464 0.600479 0.600784 0.600592 0.600764 0.600379 0.60073 0.600456 0.600679 0.600695 0.600793 0.601022 0.600907 0.601017 0.601368 0.600743 0.600883 0.601063 0.601 0.601037 0.60138 0.601205 0.601664 0.601437 0.601451 0.601632 0.601558 0.601964 0.601674 0.601822 0.601753 0.601885 0.601905 0.602016 0.601972 0.602384 0.602506 0.602296 0.602647 0.602375 0.602671 0.602786 0.602917 0.603095 0.602865 0.603081 0.603472 0.60331 0.603607 0.603746 0.603832 0.603763 0.604092 0.60404 0.603895 0.604428 0.604586 0.604299 0.604776 0.571785 0.541063 0.540772 0.540505 0.540237 0.540099 0.539763 0.539368 0.539599 0.539799 0.540161 0.540708 0.541578 0.541019 0.540399 0.540964 0.540902 0.540626 0.539708 0.53795 0.536235 0.535917 0.535939 0.535631 0.535315 0.535097 0.534864 0.534742 0.535606 0.547623 0.60018 0.609575 0.60976 0.609936 0.610241 0.610614 0.610521 0.610687 0.611109 0.611201 0.611428 0.611345 0.611532 0.612034 0.612272 0.61224 0.612695 0.612814 0.613169 0.613263 0.613466 0.613502 0.613953 0.614282 0.614343 0.614474 0.614861 0.614779 0.615321 0.615585 0.615633 0.616042 0.61604 0.616601 0.616911 0.617035 0.617143 0.617445 0.617623 0.617998 0.618183 0.618414 0.618643 0.619142 0.619323 0.619698 0.619905 0.619963 0.620007 0.620601 0.620711 0.621319 0.621556 0.62156 0.622108 0.622134 0.622522 0.622774 0.623199 0.623547 0.623519 0.623742 0.624272 0.62451 0.624525 0.625354 0.625379 0.625662 0.625991 0.626185 0.626666 0.626719 0.626976 0.627698 0.628087 0.628195 0.628778 0.628629 0.629074 0.629289 0.629533 0.630328 0.630277 0.63048 0.63111 0.631607 0.631757 0.632048 0.632518 0.632559 0.632866 0.633411 0.633514 0.63432 0.634473 0.634655 0.635106 0.635573 0.6358 0.635949 0.636556 0.636652 0.636968 0.637646 0.63794 0.638636 0.638912 0.639028 0.63932 0.63953 0.639827 0.640383 0.640781 0.641382 0.641699 0.642481 0.642453 0.642673 0.643078 0.643758 0.643933 0.644402 0.644542 0.645141 0.645198 0.64591 0.64658 0.646525 0.647012 0.6477 0.647879 0.648073 0.648642 0.649267 0.649359 0.649931 0.65016 0.650796 0.651098 0.651417 0.652394 0.652126 0.652697 0.652886 0.653625 0.653988 0.654258 0.655153 0.65559 0.655761 0.655908 0.656651 0.656809 0.657544 0.658226 0.658453 0.658942 0.659407 0.659496 0.659841 0.660459 0.660851 0.661702 0.661813 0.662363 0.663097 0.663381 0.663565 0.664064 0.664364 0.665105 0.665749 0.665673 0.666606 0.667271 0.667357 0.667845 0.668392 0.668737 0.669428 0.66961 0.670235 0.67027 0.671359 0.671585 0.672236 0.672582 0.673063 0.673744 0.674222 0.674601 0.675139 0.675512 0.675857 0.676373 0.677021 0.6775 0.677943 0.678417 0.679163 0.679287 0.680251 0.680378 0.681329 0.681282 0.616031 0.438645 0.247194 0.0512527 0 0 0 0 0 0 0 0 0 0 0 0 0
0 0 0 0 0 0 0 0 0 0 0 0 0 0 0 0 0 0 0 0 0 0 0 0 0 0 0 0 0 0 0 0 0 0 0 0 0 0 0 0 0 0 0 0 0 0 0 0 0 0 0 0 0 0 0 0 0 0 0.0267971 0.2772 0.465625 0.631472 0.65357 0.653472 0.65262 0.652319 0.652145 0.651371 0.650768 0.650616 0.650191 0.649548 0.64942 0.649056 0.64792 0.648173 0.647634 0.647082 0.646715 0.646201 0.645986 0.645703 0.645166 0.644403 0.644386 0.64371 0.643435 0.642681 0.642778 0.642012 0.641978 0.641429 0.641046 0.640339 0.640329 0.639918 0.639278 0.639203 0.638483 0.638331 0.637804 0.63732 0.636875 0.636823 0.636177 0.636018 0.635572 0.635391 0.63493 0.634326 0.634181 0.633726 0.633444 0.632975 0.632604 0.632425 0.63188 0.63139 0.63092 0.630891 0.630464 0.629983 0.629912 0.6295 0.62902 0.628547 0.628284 0.628053 0.627675 0.627482 0.627157 0.626903 0.626327 0.625789 0.625999 0.625271 0.624834 0.624883 0.624677 0.623938 0.623701 0.62345 0.623064 0.62265 0.622623 0.622427 0.621807 0.621392 0.621357 0.620793 0.620553 0.620325 0.619998 0.619791 0.61944 0.619263 0.618715 0.618249 0.618113 0.617963 0.617699 0.617269 0.616817 0.616796 0.616447 0.616059 0.615791 0.615615 0.615574 0.614783 0.614895 0.614651 0.614242 0.613919 0.613601 0.613534 0.613291 0.613186 0.613031 0.612502 0.612385 0.612104 0.611641 0.611353 0.611209 0.610815 0.610914 0.610585 0.61031 0.610142 0.609753 0.609511 0.609264 0.609053 0.608967 0.608514 0.608266 0.607881 0.607957 0.607814 0.607441 0.607224 0.6071 0.606807 0.60658 0.606103 0.605988 0.606048 0.605935 0.605321 0.605114 0.604941 0.604664 0.604945 0.604563 0.604241 0.604128 0.603873 0.603362 0.603535 0.603524 0.603218 0.60311 0.602657 0.60285 0.602473 0.6021 0.602537 0.601925 0.602027 0.601608 0.601535 0.601378 0.600996 0.60102 0.600653 0.600716 0.600622 0.600487 0.600232 0.600212 0.599715 0.599633 0.599577 0.59935 0.59932 0.599245 0.59891 0.599095 0.598511 0.598688 0.598638 0.598376 0.598402 0.598168 0.597943 0.598143 0.597844 0.597612 0.597642 0.597204 0.59735 0.597255 0.597168 0.597106 0.596839 0.596699 0.596579 0.596585 0.596372 0.596362 0.596653 0.596032 0.596193 0.596113 0.595659 0.515122 0.512409 0.511992 0.512033 0.512291 0.513119 0.532025 0.59553 0.595523 0.59522 0.595249 0.531033 0.506234 0.505509 0.50527 0.505215 0.505954 0.527358 0.595026 0.594643 0.594767 0.594406 0.59477 0.594598 0.594495 0.59456 0.594504 0.594368 0.594409 0.594351 0.594416 0.594454 0.594249 0.594376 0.594195 0.594318 0.594018 0.594285 0.594391 0.594305 0.594187 0.594058 0.594246 0.594142 0.594378 0.593946 0.59414 0.594186 0.593922 0.594089 0.594545 0.594247 0.594205 0.594299 0.594171 0.594168 0.594425 0.594489 0.594409 0.594475 0.594388 0.594496 0.594642 0.594655 0.594651 0.594806 0.594531 0.594786 0.594456 0.595106 0.59488 0.594763 0.59497 0.594781 0.595214 0.595327 0.595266 0.595216 0.595476 0.595126 0.595421 0.595348 0.595406 0.595775 0.595519 0.595856 0.595842 0.596196 0.595977 0.596134 0.596201 0.596404 0.596561 0.596354 0.596672 0.596726 0.596779 0.596706 0.596752 0.597245 0.597102 0.597442 0.597414 0.597522 0.597725 0.597737 0.597807 0.598041 0.598001 0.598156 0.598392 0.597637 0.560962 0.540931 0.540652 0.540387 0.540135 0.539924 0.539696 0.539261 0.538998 0.538811 0.538827 0.538879 0.539023 0.538699 0.538162 0.537761 0.537346 0.536969 0.536524 0.536494 0.536303 0.535952 0.535701 0.535471 0.535246 0.535087 0.535825 0.553627 0.592995 0.602833 0.603375 0.603245 0.603442 0.603787 0.603801 0.604206 0.604101 0.604783 0.604862 0.604751 0.605287 0.605341 0.605411 0.605755 0.606286 0.606296 0.606196 0.606409 0.606542 0.607051 0.607141 0.60724 0.607826 0.607662 0.60803 0.608393 0.608568 0.608578 0.608807 0.609124 0.609474 0.609898 0.609773 0.610283 0.61045 0.610849 0.610882 0.611106 0.611256 0.611743 0.611919 0.612335 0.612281 0.612451 0.613259 0.613494 0.61349 0.613771 0.613818 0.614508 0.6144 0.614808 0.615096 0.615494 0.615865 0.615844 0.616087 0.616452 0.616497 0.617167 0.617483 0.617513 0.617934 0.618194 0.618532 0.61854 0.61902 0.619527 0.619594 0.620212 0.620275 0.620637 0.621109 0.621278 0.621497 0.62197 0.621908 0.622339 0.622954 0.623179 0.623458 0.623845 0.624001 0.624491 0.624658 0.625256 0.625127 0.625745 0.625982 0.626405 0.626602 0.626933 0.627336 0.627864 0.628118 0.628447 0.628849 0.629194 0.629428 0.629687 0.630132 0.630583 0.630552 0.630907 0.631543 0.631688 0.632208 0.633036 0.632834 0.63324 0.633848 0.633827 0.634511 0.634696 0.635376 0.635698 0.636216 0.636253 0.636499 0.636904 0.637606 0.637503 0.638051 0.638827 0.639142 0.6397 0.639753 0.640137 0.64076 0.640962 0.641401 0.641696 0.64237 0.642633 0.642925 0.643463 0.64402 0.644499 0.64464 0.645234 0.645623 0.645946 0.646355 0.646599 0.64695 0.647528 0.647812 0.648493 0.648513 0.649331 0.649773 0.65004 0.650297 0.650753 0.651404 0.65165 0.652662 0.652783 0.653119 0.653815 0.653876 0.654394 0.655172 0.655457 0.656076 0.656288 0.656664 0.657013 0.657466 0.658321 0.658329 0.658932 0.659343 0.659817 0.660304 0.660725 0.661305 0.661645 0.662204 0.662695 0.663337 0.663572 0.663929 0.664723 0.664968 0.665564 0.666133 0.666412 0.667014 0.667387 0.667736 0.668179 0.668718 0.669298 0.670126 0.670142 0.670823 0.671274 0.672008 0.672581 0.672762 0.673432 0.673955 0.674383 0.674861 0.675145 0.676023 0.676236 0.500197 0.291432 0.106291 0 0 0 0 0 0 0 0 0 0
0 0 0 0 0 0 0 0 0 0 0 0 0 0 0 0 0 0 0 0 0 0 0 0 0 0 0 0 0 0 0 0 0 0 0 0 0 0 0 0 0 0 0 0 0 0 0 0 0 0 0 0 0 0 0 0.0177132 0.186104 0.412558 0.626218 0.648315 0.64741 0.64716 0.64666 0.646571 0.645895 0.645313 0.645073 0.644606 0.644288 0.643494 0.643628 0.642953 0.642487 0.642206 0.641772 0.641106 0.640758 0.640487 0.639771 0.639371 0.639306 0.638729 0.638498 0.637771 0.637452 0.636895 0.636713 0.636213 0.635696 0.635601 0.635148 0.634762 0.634437 0.63404 0.633489 0.633195 0.632613 0.632282 0.631941 0.631758 0.631046 0.630964 0.630474 0.630008 0.6297 0.629531 0.628984 0.628366 0.628131 0.627726 0.627436 0.627203 0.626893 0.626442 0.626199 0.625672 0.625537 0.624824 0.624428 0.624169 0.62394 0.623731 0.623467 0.623073 0.622337 0.622428 0.621867 0.62135 0.621217 0.620619 0.620355 0.620301 0.619697 0.61952 0.619466 0.618796 0.618404 0.618311 0.617757 0.617622 0.617382 0.616903 0.616621 0.616183 0.615797 0.615632 0.615353 0.615349 0.615029 0.614329 0.614015 0.613662 0.613543 0.613286 0.612968 0.612821 0.612418 0.612019 0.611875 0.611342 0.611072 0.610762 0.610521 0.610218 0.609926 0.609858 0.60958 0.609142 0.608988 0.608899 0.608445 0.608208 0.608183 0.607517 0.607334 0.607135 0.606867 0.606504 0.60642 0.606254 0.605682 0.605314 0.605501 0.605301 0.605033 0.604633 0.604194 0.603867 0.603957 0.603557 0.603268 0.603285 0.603067 0.602943 0.602346 0.60225 0.602151 0.601703 0.601398 0.601378 0.601105 0.600887 0.600559 0.600535 0.600422 0.599686 0.599816 0.599981 0.59945 0.599156 0.59901 0.598944 0.598865 0.598502 0.598402 0.598095 0.597859 0.597737 0.597523 0.597191 0.597234 0.597022 0.59679 0.596722 0.596457 0.596299 0.596262 0.595999 0.59558 0.595244 0.595319 0.595254 0.594974 0.595275 0.594598 0.594466 0.594309 0.594142 0.59403 0.593857 0.593877 0.593864 0.593674 0.593377 0.593279 0.593299 0.592906 0.592963 0.592958 0.59238 0.592525 0.592322 0.592159 0.592193 0.591909 0.591871 0.591741 0.591719 0.591533 0.591319 0.591049 0.591302 0.591278 0.590821 0.59082 0.590768 0.590644 0.590466 0.590165 0.590412 0.590303 0.590164 0.590201 0.589878 0.589873 0.589598 0.514022 0.512555 0.512112 0.512132 0.512282 0.513084 0.532164 0.58936 0.589287 0.588885 0.588867 0.537835 0.506426 0.505769 0.505447 0.505379 0.506077 0.517711 0.588659 0.588743 0.588445 0.588333 0.588471 0.588275 0.58855 0.588294 0.588045 0.588352 0.588297 0.588184 0.588294 0.588235 0.587908 0.588097 0.588244 0.588045 0.58823 0.588039 0.588058 0.587903 0.587839 0.587915 0.587915 0.587782 0.587921 0.587843 0.588073 0.587839 0.588094 0.588194 0.587913 0.587854 0.588086 0.588026 0.588082 0.588006 0.588355 0.588221 0.58826 0.588257 0.588189 0.588434 0.588468 0.588551 0.588454 0.588458 0.588533 0.58861 0.588591 0.588673 0.588832 0.58861 0.5886 0.588888 0.589133 0.58897 0.588931 0.589337 0.589217 0.588998 0.589328 0.589041 0.589563 0.589534 0.58934 0.589367 0.589557 0.59002 0.589673 0.589582 0.589831 0.590063 0.590237 0.590195 0.590234 0.590561 0.590388 0.590415 0.590796 0.591032 0.591078 0.591299 0.591334 0.591035 0.591368 0.591336 0.591633 0.591546 0.591819 0.591888 0.592102 0.59234 0.59181 0.567805 0.541955 0.54054 0.540268 0.540013 0.539768 0.539564 0.539372 0.539114 0.538753 0.538386 0.538152 0.53787 0.537634 0.537466 0.537301 0.5371 0.536914 0.536603 0.536313 0.536066 0.535857 0.535629 0.535436 0.537453 0.56521 0.595478 0.596487 0.596764 0.596976 0.597064 0.597575 0.597373 0.597718 0.59806 0.597746 0.598192 0.598529 0.598611 0.598818 0.599061 0.599189 0.599515 0.59951 0.600021 0.600048 0.600235 0.600569 0.600923 0.601108 0.601405 0.601563 0.601332 0.6018 0.601852 0.602048 0.60251 0.602693 0.602842 0.603217 0.603596 0.603571 0.603934 0.604177 0.604521 0.604622 0.605088 0.60522 0.605263 0.605388 0.605729 0.60615 0.606301 0.606802 0.606945 0.607032 0.607145 0.607573 0.607936 0.608225 0.608317 0.608459 0.608856 0.609229 0.609232 0.609823 0.609738 0.610479 0.610859 0.610855 0.61122 0.611411 0.611584 0.612157 0.612429 0.612572 0.6131 0.613194 0.613868 0.61401 0.614173 0.614417 0.614578 0.615073 0.615512 0.615878 0.615877 0.616359 0.61622 0.616991 0.617203 0.617613 0.617942 0.618003 0.618638 0.61877 0.619267 0.619523 0.619718 0.620114 0.620192 0.620682 0.621207 0.621417 0.621707 0.621955 0.62223 0.623174 0.623593 0.62362 0.623904 0.6243 0.624378 0.624829 0.625344 0.625838 0.62624 0.626537 0.626958 0.62716 0.627574 0.627941 0.628107 0.628551 0.629162 0.629472 0.629855 0.630147 0.630354 0.630819 0.631138 0.631605 0.632007 0.632273 0.632795 0.633173 0.633441 0.633932 0.634306 0.634735 0.635013 0.635467 0.636149 0.636574 0.636591 0.637238 0.637217 0.637781 0.638486 0.638475 0.639141 0.63958 0.639828 0.640521 0.640835 0.640844 0.641663 0.641849 0.642318 0.642998 0.643342 0.643841 0.643942 0.644368 0.645026 0.645403 0.645804 0.646336 0.646834 0.647066 0.647555 0.648022 0.64843 0.64874 0.64925 0.649826 0.650331 0.65066 0.651372 0.651618 0.652106 0.65256 0.653169 0.653365 0.653719 0.654394 0.654829 0.655425 0.655748 0.656273 0.656669 0.657172 0.657811 0.658004 0.658569 0.659025 0.659478 0.660304 0.660456 0.660824 0.661358 0.662116 0.662495 0.66272 0.66361 0.663847 0.664164 0.664977 0.665067 0.665744 0.66624 0.666631 0.667033 0.667489 0.668171 0.668974 0.669057 0.669841 0.670571 0.670604 0.578997 0.40396 0.137579 0.00916826 0 0 0 0 0 0
0 0 0 0 0 0 0 0 0 0 0 0 0 0 0 0 0 0 0 0 0 0 0 0 0 0 0 0 0 0 0 0 0 0 0 0 0 0 0 0 0 0 0 0 0 0 0 0 0 0 0 0 0.00439095 0.0966699 0.307861 0.58565 0.642827 0.642177 0.641756 0.641057 0.640972 0.640458 0.640195 0.639677 0.638939 0.638949 0.638325 0.637892 0.637349 0.637116 0.63656 0.636292 0.635541 0.635572 0.634974 0.63472 0.634147 0.633598 0.633511 0.632962 0.632437 0.632208 0.631588 0.631215 0.631231 0.630372 0.6304 0.629499 0.629162 0.62894 0.628444 0.628161 0.627856 0.627101 0.62705 0.626683 0.626124 0.626051 0.62572 0.625168 0.624297 0.624392 0.623689 0.623672 0.622953 0.623043 0.622249 0.622267 0.62171 0.621444 0.621029 0.620719 0.6205 0.619797 0.619529 0.619512 0.619083 0.618312 0.618376 0.618004 0.617347 0.617102 0.616879 0.616609 0.616027 0.615885 0.61539 0.615039 0.61447 0.614581 0.614038 0.61371 0.613763 0.612943 0.612627 0.612411 0.612103 0.611582 0.611549 0.611416 0.610723 0.610754 0.610439 0.609854 0.609554 0.608966 0.608946 0.608699 0.60857 0.608394 0.607917 0.607397 0.607247 0.60688 0.60666 0.606373 0.60604 0.605847 0.605473 0.605219 0.604703 0.604782 0.604471 0.603863 0.603822 0.603162 0.603063 0.602927 0.602818 0.602398 0.602337 0.60182 0.601772 0.601153 0.601101 0.601016 0.600491 0.600174 0.600216 0.599792 0.599471 0.599519 0.599078 0.598704 0.598382 0.598187 0.598102 0.597713 0.597446 0.597444 0.597215 0.596808 0.596216 0.596499 0.596399 0.59624 0.595922 0.595628 0.595222 0.595171 0.594798 0.594666 0.594285 0.594435 0.593895 0.593714 0.5939 0.593345 0.593307 0.593323 0.592778 0.59309 0.592642 0.592168 0.592068 0.59158 0.591769 0.591547 0.591474 0.591299 0.590923 0.590918 0.590525 0.590301 0.590205 0.590024 0.589924 0.589815 0.589337 0.589376 0.58942 0.589096 0.588748 0.588553 0.588726 0.588583 0.588087 0.588289 0.588034 0.58794 0.587637 0.587474 0.587336 0.587123 0.586976 0.586969 0.586884 0.586828 0.586538 0.586563 0.586308 0.586009 0.586271 0.585981 0.585836 0.58565 0.585671 0.585402 0.585256 0.585332 0.585473 0.584915 0.58509 0.584932 0.584433 0.584715 0.584661 0.584594 0.584453 0.584251 0.584302 0.584273 0.583934 0.583996 0.583743 0.578543 0.514293 0.51268 0.512228 0.512205 0.512357 0.513125 0.533493 0.583169 0.583122 0.582965 0.583056 0.542359 0.506623 0.505919 0.505568 0.505509 0.506162 0.507962 0.582022 0.582464 0.582447 0.582379 0.582293 0.582323 0.582172 0.582134 0.582233 0.582083 0.582233 0.58204 0.58204 0.581987 0.582165 0.582012 0.582307 0.581806 0.581766 0.582002 0.581891 0.581975 0.581817 0.581677 0.58178 0.581619 0.581735 0.581787 0.581896 0.582067 0.581987 0.582117 0.582083 0.582091 0.582042 0.581981 0.582087 0.582027 0.58203 0.582194 0.58246 0.582409 0.58223 0.582179 0.581912 0.582276 0.58226 0.582285 0.582244 0.582606 0.582596 0.582587 0.582373 0.582295 0.58294 0.582672 0.582679 0.583047 0.58278 0.582976 0.582906 0.583149 0.582753 0.58331 0.583252 0.583234 0.58364 0.583605 0.583617 0.583662 0.583872 0.583747 0.584024 0.584095 0.583995 0.584081 0.584332 0.584324 0.584514 0.58485 0.584606 0.584952 0.584752 0.584933 0.585087 0.584966 0.585338 0.585319 0.58551 0.585688 0.585843 0.58604 0.586068 0.586355 0.585917 0.586429 0.575478 0.545731 0.540451 0.540189 0.539916 0.539646 0.539395 0.539143 0.538967 0.538727 0.538468 0.538278 0.538047 0.537769 0.537443 0.537172 0.536942 0.536704 0.536469 0.536246 0.536011 0.535984 0.548243 0.578267 0.590073 0.590328 0.590524 0.590374 0.591077 0.590814 0.591041 0.591454 0.591659 0.591932 0.59158 0.591976 0.592236 0.592292 0.592809 0.592808 0.592868 0.59338 0.593536 0.593609 0.593824 0.594199 0.594269 0.594475 0.594857 0.594908 0.59513 0.595388 0.595645 0.595789 0.595965 0.596174 0.596592 0.59692 0.596963 0.597233 0.597527 0.597573 0.597721 0.598209 0.598219 0.598481 0.598703 0.599043 0.599429 0.599768 0.599884 0.600111 0.600322 0.600298 0.60084 0.601156 0.601255 0.601427 0.6019 0.602026 0.602293 0.602496 0.602736 0.603076 0.60345 0.603954 0.6043 0.604174 0.604659 0.604806 0.605278 0.605564 0.605706 0.606222 0.606415 0.606585 0.607116 0.607077 0.607512 0.607642 0.607979 0.608466 0.608581 0.609215 0.609281 0.609407 0.609948 0.610009 0.610674 0.610988 0.611241 0.611789 0.611682 0.612211 0.612604 0.612393 0.613005 0.613459 0.613532 0.614265 0.614675 0.614633 0.615334 0.615393 0.615806 0.616332 0.616247 0.617028 0.617208 0.617615 0.617756 0.618058 0.61873 0.618926 0.619586 0.619682 0.620215 0.620075 0.620617 0.621112 0.621159 0.621442 0.622047 0.622455 0.62294 0.623079 0.623522 0.623994 0.624359 0.624978 0.624989 0.625672 0.625893 0.626306 0.626824 0.627133 0.627486 0.627861 0.628321 0.628406 0.629108 0.629332 0.629621 0.630238 0.630615 0.630982 0.6314 0.631382 0.631931 0.632666 0.633077 0.633258 0.633784 0.634293 0.634538 0.634767 0.635368 0.635922 0.636464 0.636461 0.636908 0.637428 0.637704 0.638321 0.638568 0.639099 0.639632 0.640211 0.640545 0.640714 0.641293 0.641881 0.642042 0.642599 0.643139 0.643485 0.644394 0.644569 0.644985 0.645309 0.645901 0.646131 0.646578 0.646983 0.647398 0.648032 0.64859 0.648683 0.649357 0.649966 0.650246 0.650738 0.651282 0.651785 0.652218 0.652663 0.653113 0.653631 0.654265 0.654527 0.654775 0.655637 0.65595 0.656675 0.656725 0.65751 0.658 0.658133 0.658889 0.659477 0.659622 0.660381 0.660912 0.661087 0.661956 0.662217 0.662727 0.663406 0.663689 0.664422 0.664893 0.665192 0.629197 0.419292 0.172964 0.0363998 0 0 0
0 0 0 0 0 0 0 0 0 0 0 0 0 0 0 0 0 0 0 0 0 0 0 0 0 0 0 0 0 0 0 0 0 0 0 0 0 0 0 0 0 0 0 0 0 0 0 0 0 0 0.10021 0.314053 0.558918 0.637445 0.63681 0.636369 0.63585 0.635705 0.635382 0.634749 0.63451 0.633835 0.63362 0.633016 0.632839 0.632138 0.63218 0.631685 0.631148 0.630474 0.630074 0.629872 0.62925 0.628977 0.628402 0.628184 0.627563 0.627247 0.627 0.62683 0.626081 0.6257 0.625227 0.624894 0.624536 0.623849 0.623527 0.62325 0.622852 0.622562 0.622208 0.62179 0.621198 0.621105 0.62041 0.619976 0.619818 0.619124 0.619167 0.618617 0.618304 0.617924 0.617482 0.617178 0.616771 0.616406 0.61635 0.615847 0.615284 0.614895 0.614415 0.614546 0.614226 0.613473 0.61307 0.612782 0.612602 0.612237 0.612026 0.611672 0.611108 0.610999 0.610291 0.61018 0.609829 0.609528 0.609022 0.608832 0.608335 0.60816 0.607544 0.607589 0.607262 0.606959 0.606367 0.606153 0.605574 0.605612 0.605359 0.605133 0.60475 0.604363 0.604231 0.60373 0.603334 0.602772 0.602729 0.602538 0.602367 0.601905 0.601634 0.601102 0.6008 0.600837 0.600481 0.600054 0.599806 0.599214 0.59924 0.598891 0.599093 0.598513 0.598118 0.597906 0.597683 0.597362 0.596993 0.596774 0.596486 0.596234 0.596324 0.59578 0.595551 0.595192 0.595013 0.594815 0.594458 0.594023 0.593926 0.593834 0.593512 0.593252 0.593131 0.592781 0.592653 0.592198 0.591674 0.591649 0.591707 0.591567 0.590968 0.591036 0.59058 0.590234 0.590235 0.589712 0.589643 0.589637 0.589417 0.589287 0.588838 0.58845 0.588324 0.588153 0.588215 0.587511 0.587609 0.587493 0.587271 0.587025 0.586804 0.586521 0.586279 0.586395 0.586011 0.585785 0.585889 0.585546 0.585391 0.584992 0.584847 0.584816 0.584429 0.584594 0.584063 0.584121 0.583834 0.583604 0.583469 0.583406 0.583327 0.582914 0.582931 0.582908 0.582514 0.582351 0.582459 0.581976 0.582199 0.581844 0.581651 0.581742 0.581617 0.58119 0.581129 0.581128 0.580996 0.580866 0.58066 0.58037 0.580421 0.580056 0.580281 0.580108 0.579969 0.579787 0.579735 0.579549 0.579467 0.579469 0.579368 0.578882 0.578993 0.578841 0.57899 0.578729 0.578715 0.578709 0.578642 0.578323 0.57815 0.577801 0.577918 0.578199 0.577837 0.571435 0.514409 0.512842 0.512341 0.512261 0.512367 0.513156 0.536004 0.577029 0.577132 0.577055 0.57724 0.546887 0.506737 0.50604 0.505707 0.505672 0.506304 0.50699 0.569928 0.576678 0.576493 0.576774 0.576541 0.576307 0.576265 0.576106 0.57644 0.576369 0.576307 0.576405 0.576386 0.576086 0.576122 0.575971 0.576084 0.575924 0.576185 0.576012 0.576005 0.575995 0.57605 0.57614 0.576054 0.576122 0.575819 0.575801 0.575983 0.576148 0.576304 0.576312 0.576192 0.576091 0.576151 0.576052 0.576137 0.576191 0.576225 0.576212 0.57597 0.576164 0.576147 0.576458 0.576485 0.576241 0.576454 0.576206 0.576263 0.576517 0.576446 0.576507 0.576679 0.576965 0.576658 0.576719 0.576601 0.576743 0.576927 0.577051 0.576982 0.577211 0.577067 0.57735 0.577375 0.577367 0.577562 0.577495 0.577561 0.57762 0.577949 0.57809 0.578094 0.578184 0.577973 0.577833 0.578428 0.578501 0.578483 0.578532 0.578839 0.578815 0.579086 0.578869 0.579172 0.579004 0.579284 0.579552 0.57946 0.579587 0.57982 0.57982 0.580134 0.580131 0.580422 0.580389 0.580432 0.578237 0.553768 0.540449 0.540082 0.539811 0.539559 0.539298 0.539047 0.538803 0.53857 0.538314 0.538067 0.537817 0.537587 0.537336 0.537098 0.53685 0.536631 0.536497 0.540683 0.56472 0.583447 0.583775 0.584317 0.584475 0.584463 0.584861 0.584778 0.585025 0.585135 0.585123 0.585546 0.585568 0.585907 0.586082 0.586351 0.586429 0.586532 0.586855 0.586946 0.587437 0.587472 0.587675 0.587957 0.587985 0.588103 0.588548 0.588593 0.588834 0.589114 0.589361 0.589248 0.589559 0.590052 0.590227 0.590493 0.590803 0.59092 0.591177 0.591146 0.591401 0.591812 0.591989 0.591952 0.592572 0.592757 0.593133 0.593335 0.593313 0.593525 0.59393 0.594401 0.59432 0.594846 0.594754 0.595096 0.595607 0.59583 0.596091 0.596282 0.59658 0.59705 0.596902 0.597385 0.597141 0.597756 0.598227 0.598541 0.598712 0.599296 0.599078 0.599551 0.599715 0.600144 0.600292 0.600675 0.601108 0.601302 0.601535 0.602087 0.601967 0.602514 0.602748 0.603111 0.603267 0.603822 0.604077 0.604368 0.604945 0.60497 0.605363 0.605432 0.605794 0.606267 0.606498 0.606871 0.607298 0.607597 0.607576 0.608202 0.608565 0.609065 0.609077 0.609765 0.60979 0.610067 0.610455 0.610796 0.611062 0.611619 0.611718 0.612101 0.612554 0.61301 0.613086 0.613516 0.614026 0.614039 0.614382 0.615119 0.615192 0.615772 0.616224 0.616626 0.616978 0.617138 0.617752 0.617821 0.618384 0.618723 0.619267 0.619201 0.619928 0.620343 0.620282 0.621366 0.621436 0.621741 0.621995 0.622622 0.62281 0.623089 0.623605 0.624032 0.624547 0.624668 0.625296 0.625543 0.62598 0.62646 0.626598 0.627544 0.627672 0.62796 0.628534 0.629018 0.629393 0.629682 0.630093 0.630803 0.631054 0.631504 0.631834 0.632038 0.632568 0.633128 0.633552 0.634129 0.634708 0.634656 0.63528 0.635737 0.636099 0.636276 0.63682 0.637687 0.637834 0.638095 0.638648 0.639247 0.639846 0.640082 0.640646 0.64089 0.641144 0.641682 0.642148 0.642619 0.643035 0.643986 0.644296 0.644483 0.645318 0.645502 0.646026 0.646482 0.646685 0.647606 0.647882 0.648356 0.64833 0.649234 0.64981 0.649909 0.650676 0.651024 0.651569 0.652334 0.652361 0.653028 0.653613 0.653709 0.654614 0.655116 0.655293 0.656205 0.65643 0.656929 0.657675 0.657899 0.658389 0.658951 0.659626 0.659949 0.651161 0.510845 0.284639 0.0948059
0 0 0 0 0 0 0 0 0 0 0 0 0 0 0 0 0 0 0 0 0 0 0 0 0 0 0 0 0 0 0 0 0 0 0 0 0 0 0 0 0 0 0 0 0 0 0 0.0604983 0.25953 0.519319 0.632328 0.631785 0.631519 0.631194 0.630441 0.630198 0.629682 0.629059 0.628491 0.628361 0.628194 0.627329 0.626861 0.626736 0.626124 0.625786 0.625309 0.625005 0.624534 0.624421 0.623838 0.623364 0.622765 0.622677 0.622298 0.621946 0.621481 0.620991 0.620659 0.61984 0.619801 0.619487 0.618724 0.618687 0.618086 0.617959 0.617214 0.616877 0.616442 0.61612 0.615653 0.61581 0.614867 0.614739 0.614562 0.614248 0.613598 0.613227 0.612689 0.612373 0.612026 0.611499 0.611279 0.610756 0.61069 0.610527 0.609727 0.60954 0.609054 0.60876 0.608384 0.60818 0.607801 0.607462 0.607203 0.606767 0.606438 0.606213 0.605654 0.605357 0.605065 0.604727 0.604199 0.603945 0.603705 0.603467 0.603111 0.602448 0.602038 0.601922 0.601592 0.601331 0.600871 0.600799 0.600335 0.600283 0.599668 0.599582 0.599266 0.598831 0.598343 0.598011 0.597778 0.597853 0.597524 0.597113 0.59684 0.596523 0.596336 0.595833 0.595758 0.595189 0.594709 0.594778 0.594469 0.593914 0.594048 0.593336 0.593069 0.593132 0.592571 0.592614 0.592104 0.591873 0.591716 0.591015 0.590853 0.590828 0.590392 0.590256 0.590197 0.589511 0.589389 0.589228 0.588971 0.588992 0.588672 0.588234 0.587887 0.587546 0.587619 0.587371 0.58711 0.586488 0.586308 0.58619 0.58639 0.585828 0.585589 0.585185 0.585075 0.584941 0.58475 0.584422 0.584249 0.58395 0.583703 0.583691 0.583604 0.583055 0.582928 0.582635 0.582422 0.582556 0.582447 0.582086 0.581631 0.581436 0.58118 0.580924 0.581134 0.580799 0.580519 0.580406 0.579909 0.579935 0.579846 0.57956 0.579599 0.579408 0.579101 0.578972 0.578562 0.578397 0.578399 0.578088 0.578159 0.57798 0.577514 0.577556 0.577281 0.577099 0.577284 0.576893 0.576604 0.576699 0.576386 0.576205 0.576154 0.576069 0.575935 0.575717 0.575475 0.575554 0.575278 0.57533 0.57495 0.574956 0.574825 0.574823 0.574575 0.574274 0.574292 0.574218 0.574039 0.574162 0.574024 0.573597 0.573763 0.573738 0.573548 0.573225 0.573121 0.573029 0.573094 0.572645 0.572782 0.572634 0.572697 0.572506 0.572396 0.572134 0.572296 0.57222 0.57224 0.564862 0.514366 0.512935 0.512413 0.512317 0.512413 0.513167 0.535551 0.571652 0.571304 0.571121 0.571365 0.551777 0.506885 0.50618 0.505863 0.505858 0.506352 0.507032 0.550453 0.570742 0.570875 0.570879 0.57088 0.570725 0.570069 0.570531 0.570655 0.570607 0.570297 0.570528 0.570448 0.570357 0.570103 0.570204 0.570192 0.570399 0.570321 0.570206 0.570193 0.57017 0.570394 0.570302 0.570177 0.570212 0.570397 0.57006 0.569972 0.570111 0.570267 0.570242 0.570091 0.569925 0.570106 0.570116 0.570472 0.570328 0.570287 0.570457 0.570339 0.57061 0.57031 0.570342 0.570637 0.570515 0.570686 0.570589 0.570538 0.570688 0.57069 0.571044 0.571106 0.570898 0.57117 0.570938 0.570977 0.571204 0.57105 0.571145 0.571416 0.571187 0.571666 0.571804 0.57164 0.571694 0.571733 0.571861 0.571881 0.571707 0.572145 0.571988 0.572136 0.572369 0.572341 0.572534 0.572396 0.572447 0.572794 0.572824 0.573144 0.573016 0.573202 0.573225 0.573215 0.57344 0.573231 0.573559 0.573855 0.573975 0.573751 0.574146 0.574113 0.574229 0.574393 0.574867 0.574771 0.574727 0.575092 0.568947 0.555151 0.54277 0.539791 0.539448 0.539208 0.53896 0.538722 0.53847 0.538224 0.537966 0.537734 0.537494 0.53728 0.537125 0.537958 0.553216 0.57498 0.577726 0.577666 0.578109 0.578384 0.578547 0.578922 0.578797 0.578748 0.579086 0.579273 0.579474 0.57965 0.579754 0.580176 0.580081 0.580483 0.580467 0.580472 0.580971 0.581163 0.581204 0.581594 0.581609 0.581986 0.581983 0.58237 0.582773 0.582456 0.582867 0.583092 0.583238 0.583627 0.583871 0.584108 0.584138 0.584585 0.584929 0.584808 0.584902 0.585449 0.585552 0.585837 0.585942 0.586496 0.586578 0.586573 0.587053 0.587302 0.587609 0.587569 0.5879 0.587921 0.588551 0.588875 0.588917 0.589297 0.589221 0.589774 0.590022 0.590018 0.590626 0.590985 0.591304 0.59145 0.591448 0.591753 0.591835 0.592537 0.5928 0.592843 0.593352 0.593467 0.593694 0.594042 0.594395 0.594499 0.595004 0.595197 0.595338 0.595793 0.595902 0.596394 0.596603 0.596763 0.597472 0.597532 0.597743 0.598145 0.598413 0.598813 0.599139 0.599619 0.599726 0.600183 0.60024 0.600605 0.601117 0.601216 0.601752 0.601942 0.6024 0.602809 0.602694 0.603105 0.60369 0.60372 0.604341 0.604635 0.604913 0.605313 0.605583 0.605903 0.606275 0.606768 0.607204 0.607139 0.607662 0.608088 0.608463 0.608652 0.609086 0.609644 0.609875 0.610058 0.610639 0.610838 0.611255 0.611895 0.611997 0.612484 0.612989 0.613338 0.613771 0.613989 0.614543 0.614934 0.615168 0.61526 0.615961 0.616285 0.616725 0.616931 0.617381 0.617474 0.618122 0.618307 0.618896 0.619377 0.619813 0.62017 0.620213 0.621052 0.62132 0.621826 0.622234 0.622728 0.622832 0.623624 0.623718 0.624116 0.624627 0.625148 0.625541 0.625871 0.625876 0.62662 0.626977 0.627514 0.627935 0.628184 0.628922 0.629045 0.629769 0.63003 0.63043 0.630952 0.631506 0.631771 0.632275 0.63297 0.63308 0.633492 0.634273 0.634529 0.63524 0.635577 0.635976 0.636544 0.636516 0.637208 0.637455 0.638191 0.638485 0.639218 0.639421 0.639673 0.640392 0.640951 0.64125 0.641627 0.642041 0.643038 0.642843 0.643622 0.644172 0.644709 0.645224 0.645514 0.64575 0.646291 0.646745 0.647437 0.647914 0.648254 0.648942 0.6495 0.649575 0.650325 0.650835 0.651318 0.651774 0.652159 0.652986 0.653149 0.653728 0.654363 0.654582 0.655414
0 0 0 0 0 0 0 0 0 0 0 0 0 0 0 0 0 0 0 0 0 0 0 0 0 0 0 0 0 0 0 0 0 0 0 0 0 0 0 0 0 0 0 0 0.0214258 0.231614 0.476639 0.622935 0.627001 0.626257 0.626029 0.625405 0.625064 0.624675 0.624551 0.623726 0.623354 0.622693 0.622813 0.622357 0.621534 0.621504 0.620906 0.620324 0.619877 0.619655 0.619159 0.618778 0.618495 0.617925 0.617484 0.617083 0.616999 0.616395 0.615883 0.615481 0.615057 0.614838 0.614428 0.613668 0.613758 0.613099 0.612812 0.612312 0.61186 0.611695 0.611037 0.611108 0.610564 0.61008 0.609625 0.609264 0.608849 0.608648 0.608364 0.607939 0.607356 0.606942 0.606797 0.606375 0.606159 0.605591 0.605385 0.604875 0.60441 0.604245 0.603697 0.603413 0.602979 0.602772 0.602547 0.601787 0.601633 0.601133 0.600898 0.600671 0.600264 0.599968 0.599467 0.599393 0.598887 0.598466 0.598177 0.598057 0.597716 0.597573 0.596949 0.596376 0.596418 0.595737 0.595662 0.595482 0.595173 0.59494 0.594362 0.593928 0.593718 0.593331 0.593076 0.593108 0.592761 0.592469 0.591811 0.591661 0.591556 0.590747 0.590834 0.590501 0.590181 0.589776 0.589577 0.589407 0.589022 0.588641 0.588581 0.588229 0.588106 0.587568 0.587338 0.587078 0.586636 0.586786 0.58626 0.585954 0.585923 0.585336 0.585136 0.584902 0.584567 0.584494 0.584081 0.583972 0.583444 0.583264 0.583311 0.582984 0.582614 0.582509 0.581911 0.581802 0.581564 0.58151 0.581107 0.580927 0.580708 0.580264 0.580463 0.579718 0.579762 0.579765 0.579432 0.579094 0.579045 0.578714 0.578428 0.577946 0.57778 0.57777 0.577528 0.577627 0.577245 0.576854 0.576705 0.57638 0.576296 0.576306 0.575776 0.575691 0.575695 0.575167 0.575201 0.574908 0.574933 0.574329 0.574592 0.574227 0.574088 0.573981 0.573518 0.573529 0.573483 0.57279 0.572934 0.57278 0.572343 0.572506 0.572501 0.572283 0.572019 0.571703 0.571537 0.571516 0.571332 0.571274 0.5711 0.57087 0.570792 0.570581 0.570326 0.57034 0.570144 0.570049 0.570013 0.56945 0.569847 0.569523 0.569352 0.56915 0.568869 0.568936 0.568643 0.568694 0.568569 0.5687 0.568624 0.568413 0.568054 0.5681 0.567782 0.567696 0.567614 0.567562 0.567435 0.567415 0.56719 0.566927 0.567006 0.566899 0.566936 0.566685 0.566745 0.566523 0.566392 0.566425 0.566397 0.558455 0.513718 0.51251 0.512353 0.512274 0.512495 0.513312 0.539759 0.565784 0.56563 0.565453 0.565735 0.551036 0.50713 0.506322 0.505991 0.505973 0.506376 0.50704 0.549832 0.565121 0.565045 0.565197 0.56482 0.564859 0.564756 0.564957 0.564535 0.564534 0.564642 0.564813 0.56474 0.564701 0.564696 0.564758 0.5643 0.564629 0.564613 0.564302 0.564753 0.564567 0.564719 0.564801 0.564594 0.564724 0.564374 0.564322 0.564443 0.564631 0.564736 0.564586 0.564624 0.564449 0.564527 0.564191 0.564761 0.564958 0.564811 0.564781 0.564722 0.564721 0.564792 0.564658 0.564765 0.565073 0.565181 0.564831 0.56486 0.564993 0.56503 0.565219 0.565062 0.565277 0.565119 0.565073 0.565387 0.565503 0.565546 0.565636 0.565523 0.565553 0.565755 0.565787 0.565759 0.566171 0.566162 0.566049 0.566345 0.566156 0.566421 0.56657 0.566428 0.566587 0.566605 0.566821 0.566785 0.566824 0.567058 0.566914 0.567231 0.56727 0.567502 0.567374 0.567507 0.567536 0.568017 0.567917 0.567932 0.568089 0.568164 0.568306 0.568478 0.568394 0.568886 0.568743 0.569002 0.568974 0.569367 0.569216 0.569408 0.56909 0.559785 0.549821 0.541665 0.540091 0.539239 0.538864 0.538544 0.538278 0.538866 0.545312 0.553496 0.561552 0.567563 0.571596 0.571867 0.572193 0.572209 0.572152 0.572569 0.572652 0.572855 0.573054 0.573195 0.573342 0.573345 0.573571 0.573971 0.573806 0.573947 0.574299 0.574612 0.574749 0.574925 0.575019 0.57539 0.575242 0.575582 0.575532 0.576264 0.576305 0.576611 0.576819 0.577181 0.577412 0.57747 0.577618 0.577712 0.578156 0.578083 0.578545 0.578718 0.578924 0.578983 0.579055 0.579454 0.579833 0.579899 0.580362 0.58034 0.580605 0.58071 0.580939 0.581536 0.581681 0.581907 0.58229 0.582564 0.582365 0.582797 0.58326 0.583357 0.583788 0.58379 0.584077 0.584509 0.584825 0.585061 0.585176 0.585155 0.585534 0.586094 0.586303 0.586586 0.586762 0.586984 0.58729 0.587703 0.588001 0.588003 0.588418 0.588878 0.588941 0.589163 0.589673 0.590047 0.590137 0.590538 0.590745 0.590949 0.59141 0.59195 0.592024 0.592101 0.592756 0.592781 0.593425 0.593582 0.593882 0.594137 0.594378 0.594627 0.595017 0.595373 0.595403 0.596105 0.596238 0.596584 0.597077 0.597489 0.597444 0.597748 0.598403 0.598476 0.598968 0.599182 0.599506 0.599868 0.600394 0.600563 0.601063 0.601344 0.601906 0.601938 0.602474 0.602928 0.603159 0.603453 0.603735 0.603969 0.604508 0.60496 0.605623 0.605411 0.605745 0.606308 0.606628 0.606919 0.607366 0.607551 0.608192 0.608525 0.608566 0.609136 0.609613 0.610168 0.610625 0.610723 0.61134 0.611781 0.611873 0.612555 0.61251 0.613014 0.613512 0.614135 0.614087 0.61472 0.614917 0.615472 0.615789 0.61617 0.616676 0.617006 0.617541 0.618166 0.618422 0.618812 0.619264 0.619819 0.61996 0.620401 0.620862 0.621242 0.621733 0.622262 0.622475 0.622861 0.623372 0.6236 0.624077 0.624674 0.624991 0.625793 0.625912 0.626392 0.626793 0.62716 0.627591 0.6283 0.62859 0.629135 0.629319 0.63006 0.630115 0.63057 0.631313 0.631622 0.632111 0.632387 0.633002 0.633579 0.633873 0.634405 0.634945 0.634957 0.635789 0.636146 0.636512 0.637029 0.637637 0.638099 0.638984 0.638469 0.639644 0.640023 0.640313 0.641124 0.641796 0.641913 0.642265 0.642619 0.643547 0.643631 0.64462 0.64462 0.645411 0.645571 0.646342 0.646657 0.647019 0.648079 0.648194 0.648831
0 0 0 0 0 0 0 0 0 0 0 0 0 0 0 0 0 0 0 0 0 0 0 0 0 0 0 0 0 0 0 0 0 0 0 0 0 0 0 0 0 0.0127511 0.208436 0.421512 0.583608 0.62199 0.62156 0.620692 0.620763 0.62005 0.61978 0.619378 0.618749 0.61864 0.618293 0.617725 0.617378 0.616694 0.616678 0.615862 0.615666 0.614913 0.614489 0.614142 0.613803 0.613396 0.613067 0.612566 0.61208 0.611761 0.611201 0.611444 0.610657 0.610136 0.609814 0.609302 0.6089 0.608495 0.608121 0.608012 0.607415 0.60715 0.60674 0.60606 0.605851 0.605674 0.605044 0.604853 0.604397 0.604057 0.603585 0.603161 0.602907 0.602505 0.602229 0.601666 0.601476 0.600945 0.600581 0.600219 0.599986 0.599566 0.59944 0.598937 0.598546 0.598199 0.597859 0.597564 0.597304 0.596549 0.596235 0.596283 0.595681 0.595277 0.595078 0.594592 0.594401 0.593919 0.593703 0.593461 0.593128 0.592552 0.592285 0.592104 0.591752 0.591527 0.591515 0.590689 0.590597 0.589881 0.589631 0.58962 0.588812 0.589 0.58861 0.588273 0.588094 0.587511 0.587339 0.587047 0.586741 0.586388 0.585977 0.585641 0.58537 0.585281 0.584767 0.584638 0.584334 0.584116 0.583979 0.583498 0.583007 0.583001 0.582559 0.5824 0.582382 0.581666 0.58181 0.581058 0.581023 0.580802 0.58047 0.580293 0.57998 0.57974 0.579513 0.579124 0.578998 0.578665 0.57833 0.578086 0.577854 0.577601 0.577346 0.577108 0.57676 0.576854 0.576392 0.576087 0.575852 0.575603 0.575236 0.57518 0.574904 0.574761 0.574446 0.574541 0.574126 0.573986 0.573534 0.573188 0.572749 0.572878 0.572805 0.572635 0.572323 0.572179 0.57194 0.571507 0.571391 0.571095 0.571018 0.570824 0.570681 0.57052 0.570212 0.570061 0.569618 0.569696 0.569598 0.569263 0.569173 0.56905 0.568947 0.568438 0.568106 0.568268 0.568077 0.567704 0.567546 0.567327 0.567498 0.567073 0.566752 0.566802 0.566621 0.566554 0.566603 0.56593 0.565998 0.565702 0.565536 0.56553 0.565535 0.564988 0.564964 0.564907 0.564828 0.564978 0.5647 0.564183 0.564289 0.564255 0.563856 0.563744 0.563811 0.563788 0.563605 0.563362 0.563082 0.563185 0.56285 0.563001 0.562651 0.562563 0.562612 0.5622 0.562276 0.562242 0.561979 0.561816 0.561915 0.561988 0.5618 0.561552 0.561526 0.561316 0.561262 0.56116 0.561279 0.561079 0.560842 0.560807 0.560809 0.553028 0.513055 0.512276 0.512252 0.51221 0.512714 0.513867 0.542588 0.560153 0.55999 0.559908 0.560042 0.552663 0.507024 0.506153 0.505693 0.505707 0.506068 0.506719 0.537878 0.559521 0.559327 0.559623 0.558987 0.559532 0.559365 0.559119 0.559234 0.559214 0.559232 0.559211 0.55909 0.559204 0.559142 0.558913 0.559267 0.558896 0.558903 0.55909 0.559114 0.55911 0.559002 0.558853 0.558984 0.558879 0.558975 0.559083 0.558857 0.558979 0.55906 0.559157 0.558967 0.559044 0.559073 0.559072 0.559123 0.558952 0.559097 0.559116 0.559224 0.559292 0.559288 0.559192 0.559099 0.559513 0.559364 0.559303 0.559566 0.559229 0.559642 0.559618 0.55932 0.559788 0.559627 0.55978 0.55982 0.559631 0.559986 0.559745 0.560019 0.560071 0.56021 0.56034 0.560368 0.560422 0.560521 0.560622 0.560627 0.56055 0.560746 0.560638 0.560693 0.561138 0.561133 0.561293 0.561301 0.561245 0.561345 0.561519 0.561588 0.561673 0.561803 0.562026 0.562078 0.562233 0.562667 0.562052 0.562419 0.562514 0.562536 0.562808 0.562868 0.562832 0.563108 0.563249 0.563095 0.563481 0.563712 0.563752 0.563855 0.563914 0.564079 0.564215 0.564429 0.564844 0.563229 0.561442 0.55978 0.559878 0.564796 0.565455 0.565493 0.565641 0.56596 0.566044 0.566118 0.566338 0.566595 0.566722 0.566435 0.567019 0.5672 0.567256 0.567516 0.56748 0.567768 0.568093 0.568231 0.56849 0.568601 0.568703 0.568933 0.569034 0.569311 0.569467 0.569658 0.569961 0.56976 0.570153 0.570572 0.570651 0.571029 0.570831 0.57128 0.571453 0.571715 0.571951 0.572266 0.572188 0.572612 0.572598 0.572981 0.573099 0.573247 0.57374 0.573656 0.573879 0.574252 0.574555 0.574875 0.574847 0.575264 0.575416 0.575509 0.576004 0.576034 0.576298 0.576497 0.576729 0.576948 0.577225 0.577804 0.577837 0.577906 0.578279 0.578583 0.578686 0.579113 0.579356 0.579686 0.579559 0.580445 0.580568 0.580556 0.581111 0.581146 0.581524 0.581959 0.581847 0.582368 0.582604 0.582831 0.583308 0.583826 0.583382 0.583995 0.584449 0.58467 0.585033 0.58564 0.585442 0.585565 0.586217 0.586295 0.586508 0.587141 0.587257 0.5875 0.588062 0.588229 0.588403 0.588805 0.589291 0.589435 0.589715 0.59008 0.590204 0.590802 0.591199 0.591491 0.591653 0.592132 0.59244 0.592748 0.593031 0.593388 0.593796 0.59394 0.594517 0.594898 0.5951 0.595313 0.595619 0.596245 0.596331 0.596868 0.597405 0.597402 0.597886 0.598376 0.598628 0.599028 0.598649 0.599507 0.599992 0.600404 0.600802 0.601002 0.601327 0.6018 0.602286 0.602575 0.602888 0.603438 0.603687 0.603999 0.604361 0.604898 0.605262 0.605809 0.6059 0.606392 0.606754 0.60706 0.607651 0.607784 0.608225 0.608501 0.609018 0.609463 0.609763 0.61034 0.610708 0.611101 0.611015 0.611522 0.611884 0.612611 0.61332 0.613289 0.61394 0.614311 0.614618 0.615039 0.615445 0.615949 0.616405 0.616593 0.617515 0.617453 0.618008 0.618473 0.619008 0.6194 0.6197 0.620132 0.620519 0.620862 0.621443 0.622202 0.62257 0.622716 0.623131 0.623278 0.624209 0.624488 0.625076 0.625381 0.625979 0.626364 0.626598 0.626893 0.627997 0.628179 0.628635 0.628944 0.62938 0.630092 0.630277 0.631068 0.631305 0.631703 0.632291 0.632548 0.633212 0.63395 0.634142 0.634723 0.635007 0.635492 0.636227 0.636379 0.636695 0.637401 0.637868 0.638275 0.639053 0.639277 0.63985 0.640531 0.640572 0.641183 0.641932 0.642268
0 0 0 0 0 0 0 0 0 0 0 0 0 0 0 0 0 0 0 0 0 0 0 0 0 0 0 0 0 0 0 0 0 0 0 0 0 0 0.0126507 0.160344 0.371744 0.575085 0.617073 0.616732 0.616075 0.615613 0.615352 0.614957 0.61458 0.614031 0.613517 0.613062 0.612657 0.612303 0.611817 0.61143 0.611065 0.610493 0.610402 0.610003 0.609454 0.609268 0.608576 0.608269 0.608022 0.607094 0.607337 0.606936 0.606279 0.605968 0.605293 0.604962 0.60475 0.60428 0.603932 0.603793 0.603208 0.602515 0.60231 0.60166 0.601676 0.601372 0.600673 0.600416 0.599978 0.599345 0.59916 0.598863 0.5985 0.598365 0.597999 0.59732 0.597086 0.59664 0.596241 0.595845 0.595467 0.595244 0.594913 0.59453 0.594084 0.593832 0.593376 0.592844 0.592772 0.592519 0.592228 0.591823 0.591302 0.590693 0.590392 0.590346 0.589839 0.589419 0.589329 0.588813 0.588475 0.588297 0.587991 0.587401 0.587508 0.586948 0.586631 0.586591 0.585836 0.585682 0.585258 0.585036 0.584813 0.584439 0.584077 0.583617 0.583326 0.583143 0.582716 0.582358 0.582342 0.582012 0.581524 0.58123 0.580858 0.580464 0.580255 0.579913 0.579852 0.579781 0.579349 0.578946 0.578673 0.578329 0.578051 0.577897 0.577448 0.577123 0.576896 0.57684 0.576463 0.576152 0.575725 0.575451 0.575286 0.575105 0.574717 0.574396 0.574497 0.573968 0.57361 0.573391 0.573081 0.573131 0.572645 0.57241 0.572073 0.571944 0.571898 0.571343 0.571331 0.570948 0.570912 0.570658 0.570016 0.570133 0.569932 0.569618 0.569256 0.569081 0.568862 0.568857 0.568369 0.56811 0.568036 0.567716 0.567729 0.56701 0.567448 0.566967 0.566595 0.566341 0.565989 0.566222 0.565743 0.565619 0.565736 0.565565 0.564899 0.564722 0.564708 0.564706 0.564018 0.564347 0.563841 0.56399 0.563549 0.5635 0.563402 0.56304 0.562799 0.562582 0.562617 0.562289 0.562193 0.56216 0.561918 0.561603 0.561438 0.561058 0.561051 0.561189 0.560848 0.560475 0.560507 0.560394 0.559947 0.559789 0.559792 0.559743 0.559582 0.559426 0.559539 0.55916 0.559115 0.558912 0.558755 0.558545 0.558521 0.558293 0.558315 0.558154 0.5579 0.557741 0.557963 0.557718 0.557496 0.557266 0.556981 0.557108 0.557115 0.557016 0.556822 0.556712 0.556702 0.556689 0.556507 0.556476 0.556152 0.556044 0.55606 0.555943 0.556002 0.555818 0.555714 0.555561 0.555376 0.555241 0.555495 0.527107 0.511938 0.511678 0.511738 0.512254 0.513181 0.514626 0.543693 0.554679 0.554685 0.554562 0.554146 0.554274 0.507805 0.505986 0.505394 0.505463 0.505692 0.506658 0.541589 0.554055 0.55389 0.554193 0.554107 0.553819 0.553607 0.553872 0.553651 0.553796 0.553655 0.553771 0.553988 0.553545 0.553723 0.553708 0.553652 0.553654 0.553543 0.553734 0.553572 0.553625 0.553857 0.553609 0.553358 0.553687 0.553586 0.55358 0.553401 0.553263 0.55376 0.553429 0.553656 0.553797 0.553476 0.553519 0.553551 0.553667 0.553586 0.553713 0.553736 0.553692 0.55385 0.553783 0.55385 0.554047 0.553754 0.55385 0.553995 0.5541 0.554039 0.554136 0.554051 0.554321 0.554313 0.554259 0.554189 0.554255 0.554419 0.554697 0.554682 0.554616 0.554594 0.554649 0.555034 0.554797 0.554975 0.554976 0.555004 0.555397 0.555234 0.555412 0.555584 0.555328 0.555521 0.55547 0.55559 0.556064 0.555854 0.555958 0.556119 0.556256 0.556467 0.556427 0.556376 0.556825 0.556746 0.556706 0.556835 0.556909 0.557457 0.557366 0.557082 0.55749 0.557697 0.557716 0.557593 0.558053 0.557986 0.558363 0.558453 0.558381 0.558566 0.558795 0.558989 0.559013 0.55932 0.559376 0.559593 0.559545 0.559588 0.559971 0.559881 0.560045 0.560326 0.560239 0.560533 0.560801 0.560978 0.561246 0.56135 0.561637 0.561736 0.561697 0.561962 0.561883 0.5622 0.562575 0.56256 0.562969 0.562974 0.562901 0.563259 0.563742 0.563701 0.564041 0.564285 0.564414 0.564503 0.564678 0.564975 0.564789 0.565428 0.565514 0.565486 0.565809 0.566231 0.566324 0.566463 0.566618 0.566912 0.567038 0.567318 0.567513 0.567808 0.568063 0.568179 0.568206 0.568562 0.569172 0.569233 0.569285 0.569687 0.569689 0.570101 0.570547 0.570467 0.570861 0.571254 0.571041 0.571522 0.571807 0.571943 0.572218 0.572397 0.572524 0.573011 0.573209 0.573633 0.573761 0.573894 0.574159 0.57441 0.57472 0.574997 0.575274 0.575534 0.575893 0.575834 0.576295 0.57671 0.577065 0.577164 0.577451 0.57774 0.578278 0.578656 0.578538 0.57871 0.579379 0.579338 0.579847 0.580082 0.580209 0.580487 0.581141 0.581082 0.581451 0.582199 0.582023 0.582327 0.583142 0.583022 0.583385 0.583882 0.58403 0.584227 0.584533 0.585021 0.585339 0.585691 0.58612 0.586192 0.586692 0.586951 0.587351 0.587637 0.58799 0.588351 0.588554 0.588748 0.589243 0.589656 0.590213 0.590586 0.590585 0.591027 0.591373 0.591667 0.591979 0.592465 0.592641 0.593062 0.593409 0.59361 0.594095 0.594644 0.594609 0.595234 0.595553 0.595854 0.596171 0.596455 0.596967 0.597429 0.597615 0.598261 0.598361 0.598747 0.599324 0.599481 0.600154 0.600486 0.600667 0.601258 0.601273 0.602296 0.602354 0.602606 0.602944 0.603182 0.603604 0.604238 0.604681 0.604975 0.605351 0.605806 0.606222 0.606768 0.607185 0.607585 0.607912 0.60828 0.608685 0.608999 0.609445 0.609663 0.610248 0.610852 0.610973 0.611741 0.612195 0.612506 0.61252 0.613307 0.613722 0.614055 0.614446 0.615176 0.615306 0.615679 0.616163 0.616638 0.616893 0.617526 0.617877 0.618519 0.61901 0.619298 0.619604 0.620144 0.620552 0.620941 0.621652 0.62189 0.622141 0.622883 0.623367 0.62391 0.624133 0.625005 0.624992 0.625449 0.626112 0.626543 0.626921 0.627307 0.627788 0.628213 0.628742 0.629278 0.629774 0.630068 0.630587 0.630848 0.631414 0.632155 0.632574 0.633191 0.633617 0.634073 0.634587 0.635028 0.635434 0.635906
