0.30154 0.301377 0.301168 0.30093 0.300734 0.300575 0.300347 0.300123 0.29989 0.299666 0.29948 0.299225 0.299003 0.298809 0.29864 0.298421 0.298192 0.298018 0.297846 0.297585 0.29735 0.297129 0.297065 0.296711 0.29661 0.296451 0.296166 0.296017 0.295757 0.295596 0.295354 0.295149 0.29507 0.294764 0.294577 0.294361 0.294196 0.293982 0.293788 0.293574 0.293382 0.293205 0.292999 0.292813 0.292683 0.292473 0.292275 0.292097 0.291848 0.291634 0.291526 0.291325 0.291149 0.290965 0.290709 0.290522 0.290389 0.290193 0.290035 0.289834 0.289725 0.289459 0.289226 0.289122 0.288981 0.288735 0.288581 0.288469 0.288198 0.288058 0.287901 0.287672 0.287542 0.287337 0.287176 0.286991 0.286771 0.286683 0.286563 0.286326 0.286168 0.28596 0.285782 0.285645 0.285444 0.285306 0.285161 0.284968 0.284809 0.284643 0.284444 0.284331 0.28417 0.283975 0.283852 0.283644 0.283514 0.283376 0.283187 0.282979 0.282827 0.282724 0.282572 0.282366 0.282245 0.28208 0.281946 0.281722 0.281666 0.281486 0.2813 0.281267 0.280959 0.280774 0.280802 0.280623 0.280489 0.280327 0.280153 0.279964 0.279846 0.279734 0.279573 0.279403 0.279277 0.279107 0.278998 0.278811 0.278693 0.278598 0.278456 0.278298 0.278161 0.277993 0.277868 0.277753 0.277662 0.277495 0.277372 0.277171 0.277107 0.276967 0.276904 0.276723 0.276553 0.276491 0.27628 0.276221 0.276047 0.275919 0.275854 0.275726 0.275552 0.275446 0.27533 0.275223 0.275011 0.274947 0.274869 0.274678 0.274572 0.274522 0.274386 0.274271 0.274092 0.274052 0.273883 0.273806 0.273653 0.273512 0.273415 0.273351 0.273205 0.273149 0.273026 0.272861 0.272874 0.272741 0.272581 0.272484 0.272435 0.272279 0.272191 0.272069 0.27197 0.271862 0.271759 0.271661 0.271578 0.271509 0.271417 0.271331 0.271227 0.271034 0.271031 0.270892 0.270794 0.270777 0.2706 0.270548 0.270477 0.270359 0.270286 0.270221 0.270134 0.270028 0.269989 0.269856 0.269801 0.269677 0.269556 0.269544 0.269448 0.269362 0.269289 0.26923 0.269121 0.269039 0.268898 0.268874 0.268883 0.268772 0.268681 0.268524 0.26851 0.268474 0.268416 0.268311 0.268295 0.2682 0.268169 0.268051 0.26796 0.267901 0.267844 0.267776 0.267729 0.267576 0.267584 0.267595 0.267511 0.267455 0.2674 0.267289 0.267239 0.267191 0.267089 0.2671 0.26701 0.266983 0.266935 0.266842 0.266794 0.266755 0.266732 0.266639 0.26662 0.266588 0.266503 0.266515 0.266405 0.266366 0.266331 0.266339 0.266269 0.26622 0.266231 0.266048 0.266143 0.266094 0.266067 0.265975 0.265949 0.265927 0.265861 0.265856 0.265767 0.265799 0.265695 0.265713 0.265642 0.265645 0.265647 0.265646 0.26555 0.265532 0.265576 0.265519 0.265416 0.265471 0.265426 0.265408 0.265388 0.265409 0.265298 0.265398 0.265329 0.265321 0.265279 0.265266 0.265227 0.265229 0.265176 0.265163 0.265155 0.265194 0.265157 0.265135 0.265175 0.265077 0.265175 0.26507 0.265097 0.265098 0.265139 0.265114 0.265125 0.265146 0.26506 0.265119 0.265119 0.26516 0.265073 0.265171 0.265126 0.265152 0.26514 0.265109 0.265177 0.265155 0.265153 0.265163 0.265162 0.265203 0.265233 0.265254 0.265233 0.26527 0.265279 0.265268 0.265346 0.265283 0.265286 0.265358 0.26534 0.265408 0.265423 0.265474 0.265448 0.26544 0.265527 0.265528 0.265579 0.265535 0.265614 0.26562 0.265679 0.265675 0.265711 0.265768 0.265755 0.26578 0.26586 0.265872 0.265969 0.266003 0.265971 0.266053 0.266021 0.266073 0.266181 0.266187 0.266183 0.266305 0.266336 0.266367 0.266387 0.266409 0.266462 0.266483 0.266578 0.266633 0.266646 0.266712 0.266766 0.266773 0.266802 0.266912 0.266986 0.267029 0.267075 0.267144 0.267228 0.267218 0.267288 0.267362 0.267402 0.267485 0.267504 0.267561 0.267682 0.26773 0.267766 0.26787 0.267894 0.267955 0.268065 0.268095 0.268198 0.268268 0.268324 0.26841 0.26844 0.268523 0.26863 0.268677 0.26877 0.268806 0.268889 0.26892 0.269024 0.269121 0.269155 0.269355 0.26934 0.269437 0.269493 0.269589 0.269713 0.269843 0.269819 0.269887 0.270012 0.27011 0.270245 0.270251 0.270344 0.270489 0.270463 0.270625 0.270737 0.270822 0.270961 0.270981 0.271098 0.271209 0.271247 0.271355 0.271443 0.271569 0.271666 0.271755 0.27187 0.272013 0.272096 0.27222 0.272294 0.272358 0.272524 0.27261 0.27273 0.272803 0.272996 0.273055 0.273071 0.273218 0.273386 0.273463 0.273616 0.273648 0.273826 0.273885 0.273978 0.274116 0.274195 0.2744 0.274484 0.274638 0.274668 0.274766 0.274941 0.275123 0.275159 0.275323 0.275498 0.275606 0.275633 0.275806 0.275928 0.27607 0.276175 0.27631 0.276509 0.27658 0.27669 0.276821 0.276972 0.277053 0.277249 0.277315 0.27749 0.277621 0.277774 0.277944 0.278042 0.278203 0.27826 0.278464 0.278507 0.278735 0.27889 0.278972 0.279126 0.279316 0.279429 0.279539 0.279724 0.279911 0.280051 0.280103 0.280246 0.280407 0.280555 0.280732 0.280821 0.281019 0.281181 0.281315 0.281403 0.281583 0.281758 0.281891 0.28207 0.282276 0.282449 0.282556 0.282787 0.282847 0.283058 0.283217 0.283321 0.283554 0.283677 0.283846 0.283966 0.28416 0.284283 0.284394 0.284623 0.284788 0.285003 0.285095 0.285279 0.285424 0.285615 0.285761 0.285991 0.286181 0.286329 0.286489 0.286597 0.286791 0.287 0.287149 0.287332 0.287542 0.287692 0.28788 0.288024 0.288227 0.288378 0.28854 0.288717 0.288929 0.289105 0.289262 0.289405 0.289705 0.289815 0.289957 0.290278 0.290416 0.290611 0.290797 0.29092 0.291112 0.291286 0.291548 0.291718 0.291906 0.292133 0.292315 0.292432 0.292592 0.292841 0.293013 0.293169 0.293398 0.29358 0.29385 0.294025 0.294243 0.294378 0.294586 0.29476 0.295009 0.295183 0.295362 0.295497 0.295788 0.295989 0.296119 0.296362 0.296608 0.29683 0.296967 0.297221 0.297361 0.297581 0.297762 0.298013 0.298258 0.298404 0.298583 0.298846 0.299031 0.29922 0.299456 0.299699 0.299891 0.300039 0.300244 0.300555 0.300733 0.300889 0.301143 0.301319 0.301564 0.301872
0.300176 0.299973 0.299759 0.299519 0.299318 0.299105 0.29887 0.298674 0.298458 0.298212 0.29809 0.297837 0.297693 0.297387 0.297268 0.297067 0.296876 0.296681 0.296364 0.296218 0.295998 0.295791 0.295673 0.295406 0.29519 0.294953 0.294766 0.294565 0.294474 0.294142 0.293993 0.293825 0.293489 0.293398 0.293246 0.293026 0.29282 0.292526 0.292446 0.292259 0.291992 0.291891 0.291612 0.29148 0.291305 0.291083 0.290904 0.290695 0.290491 0.290362 0.290203 0.289883 0.289821 0.289619 0.289412 0.289187 0.28903 0.288893 0.288688 0.288474 0.288268 0.288145 0.28793 0.287741 0.287634 0.287413 0.287228 0.287114 0.286887 0.286719 0.286535 0.286398 0.286195 0.285988 0.285816 0.285697 0.285499 0.285334 0.285165 0.284967 0.284805 0.284613 0.284432 0.284267 0.284171 0.284006 0.283828 0.283635 0.283495 0.283305 0.283176 0.282987 0.282803 0.282695 0.282549 0.28234 0.282144 0.28204 0.281891 0.281726 0.281581 0.281373 0.281218 0.281059 0.280939 0.280792 0.280637 0.280463 0.280326 0.280154 0.279988 0.279895 0.279697 0.279604 0.279432 0.279307 0.279147 0.279029 0.278836 0.27868 0.278578 0.278373 0.278273 0.278154 0.277988 0.277801 0.277732 0.277596 0.27744 0.277354 0.277199 0.277042 0.276836 0.276748 0.276542 0.276462 0.276362 0.276224 0.276151 0.27593 0.275877 0.275679 0.275524 0.275371 0.275322 0.275187 0.27505 0.274927 0.274813 0.274658 0.274522 0.274415 0.27431 0.274115 0.274101 0.273984 0.273753 0.273706 0.27357 0.273483 0.273273 0.273181 0.27308 0.272957 0.272849 0.272782 0.27262 0.272509 0.272369 0.272295 0.272214 0.27212 0.272063 0.271936 0.27174 0.271631 0.271564 0.27145 0.271342 0.271277 0.271231 0.270991 0.270911 0.270788 0.270787 0.270571 0.270573 0.270409 0.270318 0.270266 0.27015 0.270051 0.269917 0.269929 0.269758 0.269675 0.269586 0.269493 0.269417 0.269301 0.269227 0.269144 0.269058 0.268945 0.268901 0.268753 0.268664 0.268602 0.26853 0.268467 0.268371 0.268271 0.268193 0.268141 0.268032 0.267988 0.267892 0.26778 0.267762 0.267643 0.267573 0.267495 0.267431 0.267409 0.267363 0.267221 0.267154 0.267102 0.267041 0.266971 0.266884 0.266842 0.266744 0.26669 0.266727 0.266573 0.266486 0.266462 0.266368 0.266414 0.266217 0.266223 0.266126 0.266067 0.265993 0.265952 0.265885 0.265902 0.26581 0.265749 0.265648 0.265598 0.265583 0.265526 0.265499 0.26543 0.265415 0.265316 0.265309 0.26526 0.265205 0.265218 0.265122 0.265129 0.265017 0.264981 0.264933 0.264889 0.264872 0.264824 0.264781 0.264749 0.264747 0.264689 0.264686 0.264622 0.264605 0.264572 0.264532 0.264471 0.264483 0.26449 0.264432 0.264377 0.264327 0.264368 0.264338 0.264256 0.264283 0.264292 0.264223 0.264209 0.264235 0.264089 0.264103 0.264141 0.264136 0.264036 0.264126 0.264095 0.264048 0.264051 0.264032 0.263957 0.263993 0.263927 0.263988 0.263987 0.263975 0.264021 0.263984 0.263907 0.263957 0.263951 0.263908 0.263888 0.263957 0.263892 0.263941 0.263889 0.263874 0.263888 0.263908 0.26395 0.263973 0.263903 0.263981 0.263887 0.263939 0.263958 0.263956 0.263999 0.263965 0.264 0.264003 0.264026 0.26401 0.264038 0.264096 0.264106 0.264118 0.264123 0.264098 0.264104 0.264104 0.264177 0.264196 0.264258 0.264217 0.264262 0.2643 0.264239 0.264337 0.264397 0.264374 0.264475 0.264493 0.26446 0.26455 0.26446 0.264582 0.26455 0.264595 0.264654 0.264674 0.264758 0.264764 0.26481 0.264828 0.264855 0.264958 0.26499 0.264955 0.26507 0.2651 0.26519 0.265185 0.265217 0.26529 0.26524 0.265343 0.265408 0.265427 0.265486 0.265548 0.265629 0.265604 0.26572 0.265705 0.265848 0.265867 0.265962 0.266016 0.26605 0.266091 0.26615 0.266172 0.266266 0.266374 0.266389 0.266436 0.266507 0.266541 0.266664 0.266712 0.266737 0.266765 0.266899 0.266973 0.26706 0.267058 0.267157 0.267202 0.267267 0.267404 0.267486 0.267542 0.267626 0.267624 0.267734 0.267827 0.267911 0.268032 0.268017 0.26814 0.268156 0.268236 0.268393 0.268462 0.268527 0.268625 0.26869 0.268704 0.268826 0.268961 0.269045 0.269127 0.269218 0.269256 0.26945 0.269519 0.269525 0.269646 0.269739 0.269851 0.269974 0.27004 0.270156 0.270248 0.270293 0.270474 0.270553 0.270609 0.27074 0.270811 0.270924 0.271027 0.271149 0.271235 0.271318 0.27145 0.271557 0.271617 0.271756 0.271945 0.272 0.272047 0.272216 0.272322 0.272458 0.272523 0.27269 0.272703 0.272852 0.272997 0.273102 0.273253 0.273357 0.273385 0.273566 0.273676 0.273826 0.273952 0.274057 0.274197 0.274265 0.274487 0.27459 0.274714 0.274821 0.274876 0.275018 0.275179 0.275316 0.275428 0.275589 0.27571 0.275765 0.275891 0.27603 0.276205 0.276409 0.276489 0.27659 0.276655 0.276869 0.276986 0.277169 0.277295 0.277455 0.277571 0.277633 0.277965 0.277992 0.278177 0.278277 0.278429 0.278588 0.278672 0.278799 0.279054 0.279178 0.279349 0.279459 0.279526 0.27974 0.279893 0.280033 0.280163 0.280266 0.280521 0.280663 0.280734 0.280897 0.281076 0.281214 0.281387 0.281536 0.281697 0.281804 0.282019 0.282202 0.282303 0.282485 0.282624 0.28286 0.282978 0.283198 0.283326 0.283476 0.283561 0.283764 0.283962 0.284149 0.28435 0.284484 0.284696 0.28486 0.28496 0.285172 0.285329 0.285543 0.285717 0.285807 0.286057 0.286178 0.286307 0.286534 0.286777 0.286913 0.287083 0.287195 0.287461 0.287592 0.287738 0.287939 0.288168 0.288276 0.288485 0.288681 0.288866 0.289084 0.289178 0.289432 0.289506 0.289715 0.289936 0.290138 0.290316 0.290553 0.290722 0.290919 0.291104 0.291258 0.291439 0.291684 0.2918 0.291997 0.292219 0.292436 0.292588 0.292768 0.293075 0.293201 0.293455 0.293522 0.293771 0.293994 0.29415 0.294424 0.294563 0.294799 0.294974 0.295195 0.295419 0.295568 0.295808 0.296032 0.296149 0.296395 0.296611 0.296799 0.296979 0.297234 0.297473 0.297639 0.297904 0.298128 0.298279 0.29849 0.298677 0.298894 0.299202 0.29936 0.299535 0.299731 0.299923 0.300195 0.30035
0.298773 0.298543 0.298318 0.298101 0.297993 0.297715 0.297478 0.297324 0.297058 0.296898 0.296683 0.296473 0.296272 0.296077 0.29583 0.295615 0.295421 0.295208 0.295027 0.294818 0.294621 0.294385 0.29432 0.29395 0.293809 0.293664 0.293407 0.293307 0.293011 0.29277 0.292657 0.292413 0.292131 0.292146 0.29184 0.291632 0.291467 0.291229 0.291089 0.290954 0.290599 0.290556 0.290314 0.290131 0.289955 0.289714 0.289592 0.289363 0.289185 0.289048 0.288837 0.288621 0.288482 0.288232 0.288008 0.287879 0.287693 0.287523 0.287394 0.287133 0.287022 0.286833 0.28664 0.286443 0.286292 0.286157 0.285897 0.285724 0.285521 0.28534 0.285216 0.285023 0.28484 0.284699 0.284456 0.28429 0.284181 0.284052 0.283874 0.283698 0.28351 0.283359 0.283149 0.282957 0.282811 0.282622 0.282527 0.282347 0.282182 0.282043 0.281878 0.281717 0.28154 0.281309 0.28122 0.281014 0.280897 0.280757 0.280639 0.280399 0.280347 0.280096 0.279967 0.279813 0.279622 0.279515 0.279344 0.279197 0.279052 0.278911 0.278772 0.278653 0.278423 0.278322 0.278163 0.278026 0.277864 0.277741 0.277529 0.277485 0.277302 0.2771 0.276959 0.276815 0.27673 0.276597 0.276462 0.276342 0.276184 0.275965 0.275884 0.275786 0.275583 0.275526 0.275382 0.275231 0.275079 0.274909 0.274855 0.274707 0.27457 0.274407 0.274276 0.274178 0.274042 0.273831 0.273822 0.2737 0.273558 0.273475 0.273244 0.273167 0.273064 0.272961 0.272786 0.272682 0.272557 0.27244 0.27234 0.272226 0.272116 0.271947 0.271865 0.271685 0.271668 0.271545 0.271371 0.271273 0.271213 0.271066 0.270993 0.270827 0.270718 0.270606 0.270526 0.270416 0.270298 0.270187 0.270099 0.270052 0.26987 0.269834 0.269699 0.269573 0.269535 0.269385 0.269255 0.269232 0.269149 0.26903 0.268874 0.268755 0.268714 0.268672 0.268499 0.268495 0.268359 0.268281 0.268217 0.268074 0.268028 0.267863 0.267772 0.267749 0.267608 0.267518 0.267409 0.267368 0.267307 0.267242 0.267232 0.26709 0.266979 0.266851 0.266865 0.26674 0.266663 0.266597 0.266541 0.266473 0.266372 0.266247 0.266284 0.266155 0.266065 0.266039 0.265965 0.265888 0.265783 0.265737 0.265696 0.265598 0.265549 0.265454 0.265406 0.265365 0.265357 0.265224 0.265204 0.265068 0.265057 0.264988 0.264903 0.264864 0.264823 0.264707 0.264684 0.264611 0.264611 0.264586 0.264473 0.264398 0.264343 0.26432 0.264257 0.26431 0.264209 0.264137 0.264066 0.264082 0.263981 0.263997 0.26395 0.263874 0.263855 0.263856 0.263768 0.263712 0.263689 0.263652 0.263621 0.26355 0.263514 0.263545 0.26348 0.263455 0.263412 0.263358 0.263313 0.263359 0.263286 0.263281 0.263226 0.263176 0.263183 0.263086 0.263103 0.263139 0.263046 0.263086 0.26301 0.262969 0.263003 0.262975 0.263012 0.262955 0.262894 0.262909 0.26287 0.262874 0.262825 0.262875 0.262809 0.262809 0.262839 0.262787 0.2628 0.262747 0.262663 0.262773 0.262712 0.262742 0.26276 0.262698 0.262762 0.262627 0.262681 0.262748 0.262687 0.262726 0.262668 0.262679 0.262797 0.262728 0.262661 0.262717 0.26268 0.262736 0.262775 0.262744 0.2628 0.262808 0.262776 0.262757 0.262829 0.262818 0.262817 0.262884 0.262886 0.262828 0.262839 0.262954 0.262921 0.262917 0.262972 0.262992 0.263057 0.262997 0.263013 0.263028 0.263093 0.263143 0.263156 0.26319 0.263169 0.263264 0.263239 0.263311 0.263325 0.263351 0.263381 0.263399 0.263428 0.263448 0.263583 0.263554 0.263575 0.263607 0.263656 0.263701 0.263642 0.263778 0.263828 0.263836 0.263906 0.263961 0.263922 0.264038 0.264009 0.264091 0.264197 0.264159 0.264257 0.264271 0.264361 0.264417 0.264476 0.264495 0.264486 0.264608 0.264655 0.264714 0.264758 0.264805 0.264864 0.264918 0.26495 0.26501 0.265116 0.265097 0.265226 0.265316 0.26533 0.265443 0.265434 0.26557 0.265564 0.265703 0.265755 0.265797 0.265862 0.265986 0.266093 0.266089 0.26615 0.266169 0.266228 0.26637 0.266515 0.266534 0.266608 0.266715 0.266778 0.266808 0.266898 0.266945 0.267072 0.267125 0.267231 0.267319 0.267461 0.267512 0.267562 0.267625 0.267745 0.267847 0.267992 0.268018 0.268102 0.268161 0.268254 0.268358 0.268435 0.268555 0.268668 0.268722 0.268849 0.268921 0.269042 0.269064 0.269223 0.269335 0.269338 0.269555 0.269605 0.269709 0.269771 0.269938 0.269982 0.270132 0.270214 0.270292 0.270434 0.270527 0.270679 0.270684 0.270832 0.270919 0.271018 0.271151 0.271287 0.271407 0.271593 0.271601 0.271752 0.271836 0.272023 0.272103 0.272196 0.272323 0.272449 0.272543 0.27267 0.272788 0.272904 0.273081 0.273101 0.273274 0.273441 0.273538 0.273641 0.273819 0.273927 0.274076 0.27418 0.274322 0.274392 0.274559 0.274738 0.274849 0.274887 0.275078 0.275184 0.275373 0.27553 0.275662 0.275769 0.275854 0.276012 0.276134 0.276273 0.276446 0.276593 0.27671 0.276836 0.277028 0.277141 0.277305 0.277457 0.277578 0.277713 0.277926 0.277952 0.27815 0.278325 0.278423 0.278565 0.278744 0.278915 0.27909 0.279155 0.27929 0.279522 0.279643 0.279773 0.279986 0.280068 0.280308 0.280385 0.280642 0.280778 0.280867 0.281064 0.281258 0.281337 0.281517 0.281625 0.281857 0.282048 0.282215 0.282288 0.282479 0.282621 0.282867 0.282985 0.28316 0.283373 0.283466 0.283714 0.283826 0.284029 0.284185 0.284331 0.284521 0.28467 0.284867 0.285049 0.285243 0.285383 0.285569 0.285694 0.285919 0.286121 0.286239 0.286452 0.286627 0.286874 0.287008 0.287149 0.287339 0.287504 0.287707 0.287903 0.288067 0.288299 0.288495 0.288585 0.288771 0.288972 0.289149 0.289479 0.289506 0.289735 0.289927 0.290033 0.290286 0.290434 0.290722 0.290918 0.291033 0.291302 0.291486 0.291662 0.291766 0.292075 0.292228 0.292451 0.292614 0.292805 0.293019 0.293212 0.293347 0.293681 0.293889 0.293966 0.294313 0.294487 0.294648 0.294862 0.294997 0.295212 0.29538 0.295624 0.295847 0.296012 0.296275 0.296456 0.296667 0.296934 0.297115 0.297279 0.297508 0.297694 0.297905 0.298189 0.298376 0.298566 0.298798 0.299001
0.297392 0.297187 0.297037 0.29682 0.296535 0.296314 0.296108 0.295918 0.295654 0.295458 0.295325 0.295137 0.294826 0.294746 0.294554 0.294263 0.29408 0.293916 0.293671 0.293434 0.293267 0.293062 0.292858 0.292717 0.29243 0.292252 0.292133 0.291927 0.291663 0.291514 0.291231 0.291058 0.29086 0.290725 0.290507 0.290286 0.290093 0.289927 0.289748 0.289497 0.289393 0.289117 0.288985 0.288797 0.288523 0.288429 0.288247 0.288011 0.287862 0.287667 0.28749 0.287245 0.287082 0.286998 0.286763 0.286471 0.286408 0.286114 0.285997 0.285784 0.285694 0.285542 0.285323 0.285085 0.284915 0.284774 0.284619 0.2845 0.284303 0.284027 0.283885 0.283768 0.28357 0.283402 0.283192 0.283028 0.282882 0.282703 0.282566 0.282342 0.282194 0.282004 0.281931 0.281696 0.281565 0.2814 0.281199 0.280985 0.280912 0.280699 0.280606 0.280427 0.280269 0.280055 0.279891 0.279762 0.279582 0.279469 0.279323 0.279113 0.279012 0.278835 0.2787 0.278523 0.278393 0.278216 0.278035 0.277948 0.277707 0.27758 0.277448 0.277325 0.277251 0.277078 0.276875 0.276716 0.276559 0.276396 0.276313 0.276199 0.275997 0.275935 0.275721 0.275577 0.275434 0.275336 0.275154 0.275065 0.274922 0.274766 0.274649 0.274439 0.274433 0.274267 0.274122 0.273991 0.273852 0.273676 0.2736 0.273403 0.273294 0.273146 0.273008 0.272944 0.272764 0.272686 0.272581 0.272409 0.272312 0.272194 0.272054 0.271903 0.271837 0.271698 0.271625 0.271447 0.271393 0.271187 0.271061 0.270976 0.270874 0.270837 0.270599 0.27049 0.27038 0.270291 0.270161 0.270046 0.269955 0.26983 0.269723 0.269673 0.269568 0.269431 0.269285 0.269222 0.269077 0.268958 0.268885 0.26882 0.268704 0.268516 0.268451 0.268341 0.268256 0.26823 0.268149 0.267982 0.267905 0.267821 0.267758 0.267606 0.267544 0.267405 0.267387 0.267233 0.267146 0.267022 0.266919 0.266852 0.266798 0.266736 0.266612 0.266532 0.26645 0.266328 0.266256 0.266134 0.266098 0.266005 0.265933 0.265862 0.26576 0.265699 0.265647 0.265539 0.265416 0.265399 0.265373 0.265309 0.265125 0.265088 0.265014 0.264924 0.264854 0.2648 0.264739 0.264675 0.264607 0.264576 0.264478 0.264453 0.264294 0.264237 0.264172 0.264141 0.264111 0.264001 0.263957 0.263911 0.263856 0.263814 0.263781 0.263734 0.263694 0.26362 0.263539 0.263383 0.263388 0.26331 0.263319 0.263312 0.263241 0.263094 0.263113 0.263044 0.263025 0.262966 0.262949 0.262889 0.262828 0.262792 0.262722 0.262711 0.262691 0.26266 0.262581 0.262535 0.26248 0.262433 0.262435 0.262351 0.262342 0.262296 0.262248 0.262313 0.262241 0.262231 0.262197 0.262098 0.262151 0.262039 0.26206 0.261948 0.261974 0.261988 0.261931 0.261974 0.26185 0.26182 0.261793 0.261803 0.261816 0.261742 0.261798 0.261757 0.261723 0.261672 0.261631 0.261727 0.261582 0.26171 0.261627 0.261641 0.261621 0.261682 0.261553 0.261595 0.261602 0.261577 0.261566 0.261544 0.261546 0.261545 0.261495 0.26155 0.261526 0.261523 0.261558 0.261559 0.261569 0.26154 0.261579 0.261483 0.26153 0.261562 0.2616 0.261571 0.261563 0.261634 0.261615 0.261562 0.261623 0.261591 0.261598 0.261613 0.261699 0.261639 0.261661 0.26162 0.261682 0.261705 0.261694 0.261828 0.261818 0.261745 0.261846 0.261881 0.261845 0.261901 0.261887 0.261971 0.262 0.261993 0.261957 0.262054 0.262051 0.262088 0.262083 0.262185 0.262222 0.262187 0.262235 0.262291 0.262294 0.262329 0.262355 0.262408 0.262466 0.262463 0.262556 0.262576 0.262653 0.262657 0.262703 0.262713 0.26278 0.26281 0.262894 0.262923 0.262958 0.263028 0.263049 0.263066 0.263194 0.263212 0.263265 0.263351 0.263347 0.263398 0.263449 0.263504 0.263558 0.263651 0.263653 0.263701 0.263737 0.263837 0.263931 0.264006 0.264043 0.26411 0.26414 0.264219 0.264279 0.264349 0.264475 0.264481 0.264568 0.264583 0.264675 0.264731 0.264875 0.264941 0.264997 0.265024 0.265123 0.265218 0.265222 0.265255 0.265375 0.265494 0.265592 0.2656 0.265677 0.265803 0.265857 0.265957 0.266062 0.266094 0.266245 0.266268 0.266283 0.266443 0.26647 0.266599 0.266704 0.266761 0.266874 0.266889 0.267088 0.267132 0.267264 0.267319 0.267445 0.267483 0.267619 0.267677 0.267846 0.267936 0.268042 0.268037 0.268113 0.268249 0.268381 0.268567 0.268591 0.268814 0.268785 0.268898 0.268932 0.269128 0.269161 0.269337 0.269457 0.269509 0.269626 0.269726 0.269795 0.269982 0.270137 0.270204 0.270312 0.270384 0.270527 0.270557 0.270725 0.270833 0.270986 0.271126 0.27122 0.271361 0.271442 0.271576 0.271678 0.271882 0.271959 0.272082 0.272151 0.272284 0.27239 0.272561 0.272665 0.272783 0.272866 0.273072 0.273165 0.273307 0.273441 0.273603 0.273709 0.27383 0.274014 0.274068 0.274203 0.274398 0.274534 0.274637 0.274787 0.274907 0.275016 0.275163 0.275342 0.275403 0.275602 0.275689 0.275866 0.275968 0.276173 0.276332 0.276397 0.276637 0.276744 0.27687 0.276998 0.277224 0.277339 0.27753 0.277709 0.277739 0.277918 0.278074 0.278245 0.278355 0.278515 0.278714 0.278792 0.279053 0.279118 0.279273 0.279466 0.279595 0.279708 0.279913 0.280092 0.280264 0.280466 0.280578 0.280729 0.280865 0.28109 0.281198 0.281394 0.281496 0.281677 0.281867 0.282032 0.282213 0.282346 0.282567 0.282738 0.282814 0.283038 0.283207 0.283411 0.283559 0.283733 0.283946 0.284035 0.284272 0.284444 0.284593 0.284798 0.284965 0.285092 0.285294 0.285434 0.285622 0.285791 0.285985 0.286188 0.286392 0.286571 0.286754 0.286949 0.287177 0.287329 0.287438 0.287623 0.287827 0.288108 0.288239 0.28842 0.288516 0.288702 0.288976 0.289183 0.289352 0.289487 0.289753 0.289989 0.290095 0.290325 0.290535 0.290645 0.290878 0.291107 0.291208 0.291551 0.291704 0.291881 0.292078 0.292303 0.292449 0.29272 0.292839 0.293026 0.2932 0.293463 0.293619 0.293911 0.294022 0.294277 0.294487 0.294674 0.294859 0.295098 0.295263 0.295483 0.295718 0.295928 0.296166 0.29634 0.296556 0.296761 0.296977 0.297214 0.297406 0.297585
0.296069 0.295792 0.295588 0.295471 0.295195 0.29495 0.29477 0.294525 0.294348 0.294113 0.294007 0.293783 0.293604 0.293331 0.293069 0.292871 0.292691 0.292552 0.292342 0.292147 0.291998 0.291703 0.291523 0.291288 0.291127 0.290913 0.290752 0.290604 0.290291 0.290225 0.289954 0.289762 0.289556 0.289344 0.289156 0.289011 0.288742 0.288661 0.288434 0.288182 0.288038 0.287882 0.287704 0.287419 0.287268 0.287076 0.286916 0.286759 0.286578 0.286314 0.286177 0.286016 0.285754 0.285603 0.285427 0.28527 0.285072 0.284887 0.284688 0.284566 0.284349 0.284183 0.28395 0.283854 0.283698 0.283504 0.283284 0.283126 0.282941 0.282782 0.282627 0.282437 0.282259 0.282096 0.281898 0.281737 0.281631 0.281464 0.281208 0.281067 0.280933 0.280723 0.280592 0.280478 0.280249 0.280095 0.280011 0.279829 0.279599 0.279425 0.279335 0.279132 0.278962 0.278807 0.278687 0.278443 0.278289 0.27825 0.278094 0.27783 0.27773 0.277519 0.277393 0.277314 0.277048 0.276971 0.276825 0.276633 0.276541 0.276386 0.276182 0.276118 0.2759 0.275755 0.275602 0.275499 0.27538 0.275186 0.275093 0.274903 0.274725 0.274583 0.274496 0.274434 0.274211 0.274058 0.273938 0.273744 0.273712 0.273482 0.273341 0.273277 0.273082 0.272991 0.272844 0.272717 0.272609 0.272508 0.272353 0.272192 0.272078 0.271967 0.271792 0.271703 0.27158 0.271444 0.271343 0.271198 0.271001 0.270972 0.270811 0.270754 0.270568 0.270435 0.270285 0.2702 0.270095 0.269988 0.269879 0.269753 0.269635 0.269525 0.269398 0.269258 0.269217 0.269109 0.268975 0.268825 0.268689 0.268628 0.268517 0.268405 0.268258 0.268224 0.268144 0.268046 0.267862 0.267736 0.267718 0.26756 0.267465 0.2674 0.267272 0.267223 0.267061 0.26698 0.266898 0.266808 0.266654 0.266581 0.266495 0.266431 0.266286 0.266234 0.266075 0.265975 0.265974 0.265851 0.265748 0.265641 0.265593 0.265461 0.2654 0.2653 0.265322 0.265148 0.265073 0.265011 0.264968 0.264787 0.264733 0.264711 0.264625 0.264511 0.264411 0.264354 0.264323 0.264197 0.26412 0.264032 0.263959 0.263905 0.263828 0.263803 0.263685 0.263684 0.263549 0.263423 0.263405 0.263344 0.26331 0.263279 0.26321 0.263103 0.263018 0.262937 0.262919 0.262843 0.262788 0.262719 0.262634 0.262587 0.262556 0.26247 0.262491 0.262444 0.262381 0.262249 0.262168 0.262214 0.262152 0.262136 0.262021 0.261973 0.261933 0.261889 0.261897 0.26177 0.261728 0.261664 0.261647 0.261546 0.261537 0.261461 0.261513 0.261413 0.261408 0.261299 0.261331 0.261311 0.261266 0.261223 0.261137 0.261166 0.261119 0.26111 0.261036 0.261013 0.260925 0.260928 0.26095 0.26091 0.26085 0.26086 0.260854 0.260795 0.260824 0.260755 0.260737 0.260743 0.260715 0.260659 0.260635 0.260655 0.260593 0.260642 0.260558 0.260493 0.260524 0.260511 0.260474 0.260508 0.260501 0.260553 0.260412 0.26043 0.260426 0.26041 0.260461 0.260361 0.260429 0.260374 0.260427 0.260348 0.260414 0.260376 0.26037 0.260354 0.26031 0.260357 0.260382 0.260363 0.260394 0.260367 0.260385 0.260343 0.26034 0.260355 0.260408 0.260457 0.26043 0.260358 0.260392 0.260449 0.26047 0.260456 0.260517 0.26052 0.260523 0.260532 0.260558 0.260569 0.260557 0.260615 0.260612 0.260605 0.26061 0.26066 0.260709 0.260697 0.260801 0.260765 0.260789 0.260793 0.260878 0.260866 0.26089 0.260892 0.260949 0.260987 0.26103 0.261005 0.261092 0.261126 0.261129 0.261224 0.261204 0.261227 0.261313 0.261257 0.261374 0.261389 0.261443 0.261453 0.261525 0.261541 0.261605 0.261677 0.261698 0.261655 0.261772 0.261823 0.261861 0.261943 0.261977 0.262018 0.262024 0.262083 0.262167 0.26222 0.262354 0.262351 0.262384 0.262459 0.262495 0.262548 0.262648 0.262698 0.262761 0.262786 0.26288 0.262891 0.263006 0.263034 0.26308 0.263164 0.263202 0.26332 0.263376 0.263348 0.263483 0.263566 0.263647 0.263776 0.263751 0.263897 0.263851 0.264001 0.264118 0.264131 0.264187 0.264365 0.264387 0.264439 0.264496 0.264621 0.264702 0.264756 0.264855 0.264947 0.264992 0.265123 0.265108 0.265249 0.265367 0.265459 0.265519 0.265594 0.265647 0.265779 0.265807 0.265949 0.266042 0.266147 0.266227 0.266354 0.266435 0.266496 0.266587 0.266665 0.26684 0.266854 0.266967 0.267089 0.26716 0.267308 0.267407 0.26748 0.267562 0.267678 0.267756 0.267897 0.267967 0.268077 0.268219 0.268309 0.268418 0.268518 0.268635 0.268717 0.268909 0.268912 0.269051 0.269165 0.269246 0.269346 0.269591 0.269654 0.269771 0.269861 0.270005 0.270133 0.270302 0.270347 0.270499 0.270565 0.270705 0.270797 0.270924 0.271067 0.271188 0.271295 0.271463 0.27155 0.271682 0.271809 0.271945 0.272031 0.272202 0.272361 0.272468 0.272616 0.272696 0.272862 0.272998 0.273141 0.273284 0.273427 0.273558 0.27361 0.273777 0.273874 0.274019 0.274202 0.274398 0.274503 0.274622 0.274765 0.27491 0.275032 0.275161 0.275339 0.275464 0.275598 0.275883 0.275925 0.276065 0.276245 0.276341 0.276414 0.276629 0.27678 0.277015 0.277139 0.277269 0.277392 0.277547 0.277751 0.277887 0.27805 0.278125 0.278427 0.278479 0.278658 0.278808 0.278973 0.279119 0.279232 0.279459 0.279681 0.279793 0.279904 0.280133 0.28026 0.280441 0.280604 0.280781 0.280899 0.2811 0.28122 0.281426 0.281548 0.281747 0.281936 0.282121 0.282298 0.282459 0.282636 0.282759 0.282996 0.283167 0.28334 0.283471 0.283605 0.283852 0.284097 0.284204 0.284378 0.284544 0.284744 0.284859 0.285049 0.285246 0.285463 0.285606 0.285835 0.285959 0.286148 0.286367 0.286524 0.286761 0.286879 0.287065 0.287325 0.287441 0.287747 0.287898 0.288062 0.288233 0.288396 0.288605 0.288749 0.288974 0.289152 0.289385 0.289531 0.289826 0.289919 0.290148 0.290412 0.290452 0.290731 0.290971 0.291097 0.291318 0.291546 0.291671 0.291868 0.292107 0.292369 0.292481 0.292692 0.292953 0.293111 0.293317 0.293518 0.293749 0.294003 0.29422 0.294403 0.29464 0.294773 0.294949 0.295189 0.2954 0.295566 0.295812 0.296051 0.296198
0.294616 0.294451 0.294253 0.294037 0.293851 0.293649 0.293466 0.293229 0.293017 0.292789 0.292631 0.292441 0.292222 0.291931 0.291852 0.291665 0.291444 0.291192 0.290957 0.290751 0.290566 0.290415 0.290204 0.290071 0.289766 0.289563 0.289423 0.289201 0.289014 0.288768 0.288663 0.288474 0.288239 0.288025 0.28781 0.287647 0.287467 0.287293 0.287082 0.286871 0.286737 0.286516 0.28637 0.286184 0.285948 0.285768 0.285554 0.285393 0.285217 0.285048 0.284927 0.284651 0.284514 0.284336 0.28418 0.283933 0.283836 0.283628 0.283493 0.283287 0.283046 0.282878 0.282695 0.282533 0.282348 0.282246 0.282071 0.281864 0.281721 0.281499 0.281293 0.281179 0.280986 0.280794 0.280682 0.280439 0.280295 0.280182 0.27995 0.279797 0.279664 0.279471 0.279363 0.279115 0.278998 0.278854 0.278617 0.278496 0.278327 0.278189 0.278051 0.277851 0.277728 0.277609 0.277377 0.277239 0.277118 0.276972 0.276763 0.276626 0.276475 0.276367 0.27613 0.276011 0.275823 0.275666 0.275524 0.275423 0.275325 0.275142 0.274994 0.274872 0.274608 0.274532 0.274389 0.274204 0.274148 0.273948 0.27379 0.273636 0.273507 0.273408 0.27333 0.273131 0.27298 0.272852 0.272693 0.272545 0.272491 0.272339 0.272171 0.272002 0.271925 0.271753 0.27166 0.27149 0.271409 0.271238 0.271107 0.270986 0.270799 0.27073 0.270593 0.270476 0.270423 0.270234 0.27011 0.269954 0.269845 0.269705 0.269572 0.269438 0.269388 0.269292 0.269178 0.269026 0.268884 0.268758 0.26863 0.268461 0.268415 0.268346 0.268228 0.268088 0.268017 0.267861 0.267744 0.267664 0.267546 0.267435 0.267334 0.267212 0.267149 0.267049 0.266913 0.266818 0.266623 0.266601 0.266497 0.266362 0.266321 0.266193 0.266036 0.266009 0.265907 0.265773 0.265707 0.265582 0.26551 0.265392 0.265269 0.265195 0.265109 0.265062 0.264918 0.264812 0.264755 0.264676 0.264578 0.264498 0.264412 0.264333 0.264215 0.264171 0.264075 0.263985 0.263879 0.263852 0.263776 0.263631 0.263597 0.263503 0.263376 0.263334 0.263204 0.26315 0.263073 0.263013 0.262983 0.262901 0.26281 0.262811 0.262649 0.262591 0.262565 0.262407 0.262369 0.262286 0.262275 0.262219 0.262103 0.262045 0.261999 0.2619 0.261915 0.2618 0.261742 0.261673 0.261543 0.261571 0.261521 0.261471 0.261393 0.261348 0.261289 0.261211 0.261123 0.261145 0.261052 0.260962 0.260973 0.260909 0.260816 0.260791 0.260746 0.260738 0.260652 0.260623 0.260634 0.260502 0.260488 0.260421 0.260382 0.260367 0.260285 0.26032 0.26023 0.260193 0.260164 0.260139 0.260093 0.260054 0.259989 0.259943 0.259946 0.259899 0.259886 0.259863 0.259862 0.259801 0.259756 0.259729 0.259718 0.259738 0.259671 0.259595 0.259596 0.259608 0.259555 0.259519 0.259468 0.259495 0.259546 0.259428 0.259431 0.259364 0.259396 0.259353 0.259357 0.259356 0.259368 0.259301 0.25928 0.25929 0.259322 0.259264 0.259225 0.259294 0.259205 0.259274 0.259237 0.259266 0.259245 0.25921 0.259169 0.259187 0.259278 0.25923 0.259211 0.259227 0.259197 0.259233 0.259213 0.259198 0.259283 0.259239 0.25923 0.259191 0.259223 0.25925 0.259259 0.259336 0.259226 0.25928 0.2593 0.259329 0.259342 0.25935 0.259339 0.25942 0.259365 0.259411 0.25944 0.25944 0.259519 0.259446 0.259464 0.259532 0.259543 0.259589 0.259532 0.259609 0.259609 0.259671 0.259722 0.25971 0.259747 0.259785 0.259777 0.259808 0.259836 0.25992 0.259928 0.259921 0.259995 0.260056 0.26008 0.260096 0.260134 0.260126 0.260184 0.260257 0.260275 0.260318 0.260372 0.260411 0.2604 0.260464 0.260542 0.260563 0.260648 0.260676 0.260718 0.260731 0.260789 0.260813 0.260893 0.260986 0.261003 0.261037 0.261043 0.261167 0.26124 0.26128 0.261318 0.261393 0.261437 0.261461 0.261564 0.261602 0.261659 0.261749 0.261764 0.261887 0.261996 0.262018 0.262043 0.262113 0.262185 0.262244 0.262324 0.26243 0.262404 0.262449 0.262608 0.262646 0.262731 0.262854 0.262854 0.26298 0.263041 0.26311 0.263195 0.263263 0.263342 0.263331 0.263457 0.263553 0.263651 0.263744 0.263864 0.263811 0.264014 0.26404 0.264172 0.264228 0.26431 0.264393 0.264522 0.264546 0.264566 0.264798 0.264824 0.264995 0.265018 0.265145 0.265222 0.265335 0.26539 0.265464 0.265592 0.265704 0.265749 0.265909 0.265985 0.266051 0.266219 0.266279 0.266358 0.266478 0.266612 0.266715 0.266791 0.266846 0.266989 0.267147 0.267193 0.267344 0.267391 0.267505 0.267683 0.26778 0.2679 0.267938 0.268035 0.268214 0.268286 0.26837 0.268533 0.268686 0.268809 0.268888 0.268968 0.26915 0.269279 0.26933 0.269489 0.26961 0.26972 0.26985 0.269979 0.270124 0.270195 0.270331 0.270474 0.270583 0.270721 0.270861 0.270978 0.271173 0.271225 0.271385 0.271518 0.271571 0.271716 0.271887 0.271978 0.272252 0.272338 0.272385 0.27251 0.272712 0.272808 0.272933 0.273132 0.273299 0.273389 0.273537 0.273682 0.273745 0.273975 0.274106 0.27426 0.274432 0.274489 0.274698 0.274811 0.274922 0.275175 0.275254 0.27538 0.275533 0.275711 0.275887 0.276025 0.276186 0.27633 0.276437 0.276668 0.276691 0.276933 0.277124 0.277311 0.277382 0.277591 0.277712 0.277837 0.277986 0.278187 0.278324 0.278506 0.278667 0.278811 0.278983 0.27916 0.279338 0.279541 0.27966 0.279786 0.279946 0.280165 0.280323 0.280511 0.280679 0.280833 0.281022 0.28119 0.281333 0.281489 0.281677 0.281877 0.28204 0.282251 0.282344 0.282524 0.282757 0.282856 0.283045 0.283265 0.283486 0.283584 0.283819 0.283953 0.28415 0.28427 0.284523 0.284741 0.284858 0.285039 0.285259 0.285409 0.285576 0.285795 0.285957 0.286101 0.286377 0.286592 0.286722 0.286872 0.287075 0.287323 0.287464 0.287635 0.287853 0.288077 0.28823 0.288392 0.288648 0.288796 0.288987 0.289234 0.289399 0.289601 0.289854 0.289984 0.290176 0.290325 0.290538 0.290756 0.29097 0.291261 0.291457 0.291559 0.291826 0.291992 0.292172 0.292408 0.292629 0.292802 0.293017 0.293212 0.293395 0.293582 0.293875 0.294061 0.294265 0.294471 0.294708 0.294864
0.293335 0.293146 0.292909 0.292711 0.292515 0.292295 0.292153 0.291849 0.291729 0.291468 0.29131 0.291063 0.290883 0.290685 0.290469 0.290253 0.290095 0.289844 0.289709 0.289466 0.289261 0.289074 0.288872 0.288686 0.288498 0.288308 0.288092 0.287891 0.287642 0.287509 0.287375 0.287113 0.286914 0.286808 0.286564 0.286381 0.286182 0.285919 0.28578 0.285657 0.285435 0.285311 0.285053 0.284905 0.284718 0.284538 0.284332 0.284169 0.283879 0.28378 0.283617 0.283352 0.283186 0.28299 0.282828 0.282693 0.282497 0.282377 0.282185 0.281961 0.281799 0.281555 0.281411 0.281238 0.281078 0.280978 0.280755 0.280536 0.280468 0.280204 0.280034 0.279931 0.279763 0.279542 0.2794 0.279229 0.279087 0.278917 0.278705 0.278537 0.278381 0.278276 0.278038 0.277903 0.277753 0.277595 0.277484 0.277279 0.277085 0.276879 0.276717 0.276563 0.276456 0.276294 0.276171 0.276061 0.275889 0.275705 0.275484 0.275334 0.275207 0.275091 0.274903 0.274768 0.274629 0.274459 0.274301 0.274108 0.274002 0.273963 0.273813 0.273572 0.273449 0.27333 0.273154 0.272974 0.27293 0.272709 0.272587 0.272502 0.272345 0.272209 0.272077 0.27191 0.271795 0.271552 0.271448 0.271329 0.271186 0.271061 0.27097 0.270772 0.270651 0.270535 0.27038 0.270264 0.270179 0.270027 0.269909 0.269777 0.26964 0.269566 0.269438 0.269282 0.26914 0.269022 0.268861 0.268787 0.268612 0.268501 0.268417 0.268224 0.268197 0.268076 0.26795 0.267853 0.267676 0.267588 0.267481 0.267305 0.26721 0.267155 0.26703 0.266883 0.26679 0.266659 0.266627 0.266457 0.266312 0.266247 0.266101 0.265988 0.265925 0.265857 0.265697 0.265639 0.265508 0.265456 0.265267 0.265208 0.265021 0.264979 0.264869 0.264852 0.264666 0.26464 0.264531 0.264379 0.26437 0.26412 0.264103 0.26406 0.263951 0.263875 0.263729 0.263698 0.263591 0.263473 0.263416 0.263326 0.263253 0.263154 0.263078 0.262922 0.26285 0.262861 0.262761 0.262703 0.262595 0.262468 0.262453 0.262348 0.26224 0.262169 0.262084 0.261989 0.261961 0.261833 0.261746 0.261779 0.2617 0.261597 0.26146 0.261397 0.261408 0.261282 0.261199 0.2612 0.261079 0.261043 0.260959 0.260904 0.260818 0.260812 0.260757 0.260674 0.260562 0.260497 0.260491 0.260413 0.260335 0.260303 0.26029 0.260138 0.260084 0.260025 0.260017 0.259953 0.259892 0.259853 0.259795 0.259806 0.259664 0.259643 0.2596 0.259554 0.259513 0.259437 0.259392 0.259388 0.259281 0.259293 0.259249 0.259198 0.259192 0.259195 0.259056 0.259032 0.259006 0.258982 0.258889 0.258919 0.258844 0.258832 0.258773 0.258762 0.258756 0.258723 0.258687 0.258672 0.25865 0.258623 0.2585 0.258498 0.258432 0.258494 0.258472 0.258441 0.258445 0.258445 0.258386 0.258313 0.258313 0.258295 0.258263 0.258276 0.258285 0.258225 0.258283 0.258232 0.258216 0.258245 0.258169 0.258139 0.258198 0.258101 0.258125 0.258101 0.258061 0.258106 0.258067 0.258108 0.258055 0.258112 0.258092 0.258047 0.258013 0.258046 0.25808 0.258057 0.25806 0.258085 0.258107 0.258057 0.258087 0.258115 0.258109 0.258074 0.258146 0.258086 0.258137 0.258094 0.258092 0.258172 0.258163 0.258195 0.258188 0.258232 0.25821 0.258224 0.258236 0.258246 0.258344 0.258294 0.258308 0.258346 0.258329 0.25839 0.258413 0.258446 0.25847 0.258424 0.258552 0.258501 0.258476 0.258614 0.258626 0.258614 0.25867 0.258691 0.258712 0.258783 0.258733 0.258796 0.258885 0.258902 0.258896 0.258946 0.258986 0.25906 0.25902 0.259038 0.259107 0.259126 0.259231 0.259233 0.259313 0.259337 0.259407 0.259458 0.259426 0.259485 0.259551 0.259595 0.259733 0.259737 0.259792 0.259813 0.259867 0.259833 0.25995 0.260047 0.26009 0.260148 0.260153 0.260239 0.260291 0.260344 0.260404 0.260449 0.260493 0.260581 0.260601 0.260711 0.260788 0.260808 0.2609 0.260989 0.261071 0.261095 0.261146 0.261211 0.261283 0.261357 0.261472 0.261542 0.261508 0.261617 0.261687 0.261824 0.261843 0.261945 0.262063 0.262097 0.262192 0.262278 0.262264 0.262395 0.262469 0.262551 0.262617 0.262749 0.262816 0.262841 0.262998 0.263024 0.263127 0.263212 0.263352 0.263387 0.263504 0.263519 0.263656 0.263748 0.263834 0.263957 0.264091 0.264162 0.264176 0.264277 0.264494 0.264531 0.264578 0.264693 0.264796 0.264904 0.265005 0.26509 0.265163 0.265295 0.265359 0.26549 0.265628 0.265769 0.265817 0.265918 0.266001 0.266174 0.266202 0.266377 0.266411 0.266546 0.266618 0.266772 0.266905 0.267009 0.267174 0.267148 0.267366 0.267501 0.267587 0.267696 0.267762 0.267925 0.268062 0.268169 0.268239 0.268357 0.268531 0.268666 0.268769 0.268904 0.269017 0.269148 0.269233 0.269378 0.269526 0.269628 0.269758 0.269899 0.270066 0.27012 0.270281 0.270449 0.270517 0.270669 0.270779 0.27095 0.271033 0.271194 0.271405 0.271486 0.271572 0.271774 0.271914 0.272025 0.272189 0.272321 0.272478 0.27258 0.272789 0.272892 0.272998 0.273114 0.273324 0.273419 0.273623 0.273719 0.273912 0.274079 0.274192 0.274402 0.274387 0.274576 0.274765 0.274914 0.275089 0.27522 0.275341 0.275478 0.275722 0.275838 0.276026 0.276201 0.276378 0.276482 0.276592 0.276787 0.276856 0.277108 0.277246 0.277471 0.277601 0.277721 0.277907 0.278022 0.278217 0.278419 0.27852 0.278739 0.278929 0.279003 0.27923 0.279354 0.279583 0.279707 0.279897 0.280117 0.280244 0.280385 0.280625 0.280702 0.280898 0.281096 0.28129 0.281459 0.281611 0.281774 0.281959 0.282151 0.282391 0.282501 0.282634 0.28287 0.283044 0.28326 0.283457 0.283589 0.283689 0.28397 0.284106 0.284282 0.284509 0.284712 0.284901 0.285045 0.285212 0.28537 0.285627 0.285884 0.285959 0.286183 0.286371 0.286555 0.286757 0.286925 0.287119 0.287301 0.287592 0.287732 0.287901 0.288054 0.288213 0.288512 0.288699 0.288886 0.289136 0.289317 0.289482 0.289619 0.289846 0.290046 0.290269 0.290439 0.29066 0.290873 0.291053 0.291249 0.29158 0.291709 0.291847 0.292128 0.292244 0.292535 0.292696 0.292924 0.293105 0.293366 0.293569
0.292044 0.291769 0.291606 0.291371 0.291206 0.290989 0.290732 0.290608 0.290409 0.29022 0.289971 0.289704 0.289473 0.289419 0.289056 0.288921 0.288767 0.288545 0.28833 0.288182 0.28801 0.287789 0.287574 0.287434 0.287204 0.286964 0.286833 0.2866 0.286394 0.286209 0.286068 0.285876 0.285676 0.285486 0.285267 0.285015 0.284911 0.284726 0.284526 0.284336 0.284117 0.283936 0.283784 0.283609 0.28343 0.28319 0.283032 0.282815 0.282665 0.282499 0.282287 0.28213 0.281999 0.281815 0.281587 0.281445 0.281216 0.281036 0.280932 0.280751 0.280515 0.28036 0.280252 0.279953 0.279762 0.279627 0.279489 0.279347 0.279185 0.279005 0.278829 0.278661 0.278461 0.278354 0.278178 0.277919 0.277822 0.277622 0.2775 0.277333 0.277107 0.276979 0.276869 0.276655 0.276529 0.276314 0.276191 0.276009 0.275899 0.275754 0.275542 0.275379 0.27518 0.275074 0.274911 0.274872 0.274668 0.274431 0.274303 0.274202 0.274 0.273763 0.273671 0.273532 0.27338 0.273288 0.273133 0.272988 0.272835 0.272678 0.272501 0.272309 0.272239 0.272088 0.271921 0.271778 0.271622 0.271557 0.271382 0.271214 0.271102 0.270934 0.270877 0.270687 0.270581 0.270396 0.270227 0.270137 0.269962 0.269891 0.269789 0.269593 0.269493 0.26939 0.269195 0.269071 0.268987 0.268868 0.268687 0.268513 0.268404 0.268318 0.268225 0.268087 0.267964 0.267788 0.26768 0.26758 0.267491 0.267355 0.267228 0.267104 0.266996 0.266825 0.26675 0.266659 0.266548 0.266403 0.266299 0.266144 0.266023 0.265969 0.265832 0.265694 0.26563 0.26546 0.265451 0.265263 0.265146 0.265047 0.264957 0.264915 0.264726 0.264594 0.264523 0.264406 0.264338 0.264228 0.264178 0.264001 0.263911 0.263831 0.263663 0.263682 0.263555 0.263438 0.26337 0.263238 0.263192 0.263086 0.262972 0.262839 0.262815 0.262663 0.262613 0.26252 0.262415 0.262322 0.262161 0.262218 0.262093 0.261964 0.261914 0.261819 0.26166 0.261677 0.261571 0.261505 0.261361 0.261304 0.261235 0.261159 0.261073 0.261042 0.260974 0.260874 0.260803 0.26066 0.260631 0.260564 0.260483 0.260415 0.260412 0.260268 0.260237 0.260138 0.260057 0.260008 0.259893 0.259896 0.259824 0.259712 0.259718 0.259618 0.259605 0.259521 0.259432 0.259416 0.259299 0.259243 0.259206 0.259142 0.259077 0.259049 0.259043 0.258924 0.258805 0.258777 0.258773 0.258651 0.258613 0.258634 0.258579 0.258533 0.258439 0.258413 0.258367 0.258355 0.25825 0.258242 0.258228 0.258205 0.258101 0.25806 0.258046 0.257994 0.257927 0.257928 0.257871 0.257874 0.257804 0.257709 0.257731 0.2577 0.257677 0.257612 0.257628 0.257571 0.257531 0.257515 0.257462 0.257435 0.257406 0.257394 0.257364 0.257347 0.257336 0.257329 0.257233 0.257274 0.25723 0.257226 0.257271 0.25718 0.257118 0.257096 0.257125 0.257116 0.257077 0.257103 0.257025 0.257013 0.256993 0.257032 0.257039 0.256991 0.256959 0.256989 0.256979 0.256996 0.256971 0.256956 0.256966 0.256931 0.256909 0.256896 0.25693 0.256968 0.256958 0.256888 0.256941 0.256951 0.256896 0.25693 0.256933 0.256972 0.256969 0.256996 0.256955 0.256954 0.256952 0.256976 0.256976 0.257046 0.257035 0.257006 0.25704 0.257031 0.257088 0.257094 0.257046 0.257102 0.257103 0.257182 0.257181 0.257157 0.25725 0.257214 0.257258 0.257249 0.257307 0.257283 0.257362 0.257393 0.257363 0.257414 0.25749 0.257515 0.257523 0.257545 0.257539 0.257614 0.257656 0.257706 0.257695 0.257696 0.257762 0.257828 0.257861 0.257908 0.257921 0.257995 0.258018 0.258016 0.258025 0.258108 0.258158 0.258211 0.258212 0.258325 0.258317 0.258388 0.258378 0.258433 0.258547 0.258567 0.2586 0.258697 0.258751 0.258769 0.258814 0.258868 0.258888 0.259012 0.259066 0.259096 0.259134 0.259204 0.259244 0.25935 0.259409 0.259429 0.25947 0.259559 0.259587 0.259622 0.259706 0.259783 0.259917 0.259974 0.260033 0.260073 0.26019 0.260214 0.260281 0.260356 0.260421 0.260511 0.260557 0.260607 0.260642 0.260761 0.260882 0.260981 0.260938 0.261124 0.261185 0.261208 0.261312 0.261401 0.261479 0.261595 0.261591 0.261731 0.261782 0.261911 0.261968 0.262057 0.262119 0.262277 0.262302 0.262359 0.262538 0.26256 0.262698 0.262773 0.262897 0.262968 0.263025 0.263234 0.26324 0.263327 0.263464 0.263612 0.263614 0.263729 0.263809 0.263915 0.264014 0.264109 0.26421 0.264345 0.264432 0.264536 0.264642 0.264715 0.264866 0.265006 0.265061 0.265202 0.265267 0.265378 0.265508 0.26559 0.265689 0.265827 0.265995 0.266086 0.266206 0.266303 0.266406 0.266519 0.266612 0.266766 0.266835 0.267032 0.267078 0.267211 0.267345 0.267438 0.267617 0.2677 0.267855 0.267957 0.268037 0.268177 0.268301 0.26841 0.268567 0.268705 0.268798 0.268986 0.269033 0.269205 0.269303 0.26945 0.269625 0.269806 0.269887 0.27002 0.270149 0.270303 0.270426 0.270552 0.270711 0.27078 0.270965 0.27111 0.271217 0.271418 0.271544 0.271652 0.271806 0.271937 0.272051 0.272171 0.272329 0.272539 0.272691 0.272817 0.273029 0.273101 0.273211 0.273411 0.273564 0.273638 0.273847 0.274029 0.274191 0.274341 0.274469 0.27459 0.274761 0.27494 0.275048 0.275262 0.275403 0.275521 0.275703 0.275862 0.276022 0.276152 0.276288 0.276489 0.276707 0.276778 0.27696 0.277153 0.277298 0.277492 0.277613 0.277839 0.278021 0.278151 0.278252 0.278475 0.278602 0.278842 0.278996 0.279188 0.27937 0.279509 0.279672 0.279837 0.279999 0.280205 0.280331 0.280517 0.280754 0.280879 0.281062 0.28122 0.28141 0.281624 0.281813 0.281963 0.282126 0.282317 0.282466 0.282645 0.282872 0.283027 0.283191 0.283462 0.283503 0.283737 0.283927 0.284184 0.284381 0.284543 0.284673 0.284923 0.285091 0.285322 0.285433 0.285665 0.28589 0.286074 0.286237 0.286428 0.286553 0.286769 0.287081 0.287145 0.287397 0.287583 0.287759 0.287895 0.288148 0.288382 0.288605 0.288766 0.288976 0.289154 0.28942 0.289582 0.289771 0.289958 0.290171 0.290394 0.290618 0.290758 0.290986 0.291153 0.291448 0.29164 0.29178 0.292 0.292223
0.290682 0.29046 0.290272 0.290108 0.289853 0.289598 0.289463 0.2893 0.289073 0.288839 0.288629 0.288442 0.288262 0.288127 0.287846 0.287657 0.287501 0.287252 0.28706 0.286914 0.2867 0.286522 0.286372 0.286085 0.285933 0.285664 0.285545 0.285311 0.285131 0.284989 0.284734 0.284521 0.284392 0.284214 0.284021 0.283834 0.283661 0.28339 0.283256 0.283041 0.282871 0.282692 0.282475 0.282327 0.28209 0.281953 0.281766 0.281564 0.281479 0.281182 0.280986 0.280867 0.280694 0.280513 0.280307 0.280149 0.280003 0.279823 0.279676 0.279452 0.27924 0.279137 0.278901 0.278694 0.278568 0.278386 0.278275 0.278064 0.277923 0.27779 0.277578 0.277406 0.277278 0.277071 0.27691 0.276719 0.27657 0.276378 0.27626 0.276072 0.275943 0.275709 0.275632 0.275415 0.275288 0.275139 0.27499 0.274801 0.274665 0.274523 0.274315 0.274193 0.273961 0.273844 0.273682 0.273557 0.27337 0.273247 0.273094 0.272917 0.272714 0.272647 0.27251 0.272308 0.272237 0.272023 0.271905 0.271742 0.271644 0.271469 0.271319 0.271182 0.271026 0.270915 0.270682 0.270639 0.270508 0.27034 0.270236 0.270014 0.269889 0.269687 0.269649 0.269499 0.269364 0.26927 0.269054 0.269 0.268837 0.268643 0.268545 0.268406 0.268326 0.268156 0.268008 0.267954 0.267762 0.267623 0.267471 0.267364 0.26728 0.267139 0.267013 0.266894 0.266779 0.266634 0.266543 0.266417 0.26631 0.266188 0.265997 0.265919 0.265756 0.265673 0.265607 0.265449 0.265351 0.265248 0.265125 0.264977 0.264875 0.264745 0.264627 0.264512 0.264458 0.264318 0.264256 0.264105 0.263971 0.263861 0.26377 0.263676 0.263611 0.263492 0.263387 0.263281 0.26318 0.263093 0.26292 0.262834 0.262778 0.262687 0.262546 0.262459 0.262379 0.262272 0.262129 0.262105 0.261997 0.261919 0.261802 0.261711 0.261602 0.261545 0.261475 0.261383 0.261236 0.261226 0.261138 0.261025 0.260931 0.260856 0.26068 0.260646 0.260571 0.260511 0.260456 0.260307 0.260264 0.260204 0.260165 0.260038 0.259926 0.259839 0.259718 0.259694 0.259653 0.259598 0.259503 0.259451 0.259328 0.259278 0.259206 0.259123 0.259077 0.259025 0.258954 0.258859 0.258888 0.258743 0.258673 0.25861 0.258543 0.258487 0.258424 0.25842 0.258333 0.258221 0.25816 0.258148 0.258034 0.258048 0.257964 0.257905 0.257867 0.257728 0.257673 0.257672 0.257644 0.257492 0.257517 0.257513 0.257422 0.257366 0.257318 0.257346 0.257243 0.257222 0.257177 0.257091 0.257076 0.257036 0.257035 0.256909 0.256884 0.256877 0.256822 0.256775 0.256748 0.256674 0.256644 0.256633 0.256612 0.256587 0.256552 0.256487 0.256428 0.256496 0.256391 0.25642 0.256434 0.256334 0.256283 0.256258 0.256214 0.256227 0.256235 0.256172 0.256117 0.25611 0.256104 0.256096 0.256049 0.256069 0.256042 0.256054 0.255992 0.25599 0.255988 0.255987 0.255982 0.255906 0.255913 0.255933 0.255876 0.255854 0.25587 0.255866 0.255853 0.255848 0.25585 0.255818 0.255838 0.255836 0.255823 0.255782 0.255808 0.255832 0.255784 0.255843 0.255769 0.255814 0.255877 0.255813 0.255798 0.255796 0.255815 0.255853 0.255828 0.255845 0.255831 0.255836 0.25585 0.255903 0.255897 0.255967 0.255984 0.255957 0.255959 0.255985 0.255938 0.255993 0.256002 0.255989 0.256056 0.256066 0.256098 0.256139 0.256135 0.256141 0.256195 0.256208 0.256266 0.25624 0.256258 0.256291 0.256339 0.256328 0.256458 0.256393 0.256445 0.25644 0.25646 0.256564 0.256617 0.256631 0.256582 0.256694 0.256739 0.256766 0.256786 0.256837 0.256864 0.256882 0.256956 0.256984 0.257044 0.257046 0.257164 0.257174 0.25722 0.257281 0.257278 0.257302 0.257372 0.257409 0.257481 0.25754 0.257623 0.257674 0.257653 0.257751 0.257761 0.257829 0.257875 0.257925 0.257993 0.258079 0.258161 0.258209 0.258264 0.258291 0.258348 0.258414 0.258473 0.258554 0.258577 0.258684 0.258741 0.258783 0.258923 0.25894 0.259099 0.259069 0.259118 0.259198 0.259255 0.259313 0.259416 0.259485 0.259576 0.259584 0.259715 0.259786 0.259877 0.259913 0.260047 0.260103 0.260177 0.26028 0.260323 0.260386 0.260487 0.260634 0.260724 0.260691 0.260788 0.260907 0.260961 0.261108 0.261265 0.261266 0.26137 0.261431 0.261541 0.261654 0.261728 0.261804 0.26187 0.262046 0.262067 0.262183 0.262342 0.262409 0.262516 0.262568 0.262621 0.262712 0.262885 0.262989 0.263056 0.263142 0.263261 0.263311 0.263466 0.2636 0.263629 0.263734 0.263861 0.263988 0.264106 0.264253 0.264345 0.264471 0.264499 0.264668 0.264796 0.264873 0.265011 0.265144 0.265255 0.265359 0.26542 0.265553 0.265697 0.265822 0.265907 0.266069 0.266185 0.266244 0.266421 0.26649 0.26669 0.266691 0.266889 0.267043 0.267072 0.267255 0.267402 0.267526 0.267635 0.267755 0.267932 0.268056 0.268164 0.268331 0.268407 0.268572 0.268665 0.268821 0.268984 0.269041 0.269235 0.269391 0.269563 0.269642 0.269793 0.26985 0.269985 0.27022 0.270364 0.27043 0.270576 0.270676 0.270886 0.271047 0.271143 0.27138 0.271467 0.271658 0.271695 0.271881 0.272074 0.272186 0.272351 0.272509 0.272707 0.272833 0.272875 0.273091 0.273249 0.273319 0.273571 0.273709 0.273814 0.273961 0.27417 0.274322 0.27452 0.274611 0.274782 0.274988 0.275107 0.275323 0.275381 0.275634 0.275716 0.275893 0.276132 0.27629 0.276449 0.276597 0.276736 0.276897 0.277093 0.277214 0.277393 0.27759 0.277709 0.277918 0.278041 0.278274 0.278446 0.278573 0.278755 0.278904 0.279101 0.279298 0.279483 0.279677 0.279825 0.279991 0.280141 0.280337 0.280474 0.280708 0.28087 0.281025 0.281232 0.281401 0.281623 0.281819 0.281894 0.282108 0.28229 0.282503 0.282693 0.282867 0.283017 0.283257 0.283488 0.283578 0.283783 0.284014 0.284135 0.284364 0.284555 0.284761 0.284933 0.285132 0.285318 0.285476 0.285672 0.285879 0.286103 0.286305 0.28652 0.286727 0.28688 0.287074 0.287312 0.287446 0.28762 0.287906 0.288 0.288321 0.288481 0.288626 0.288864 0.289083 0.289318 0.289433 0.289652 0.289906 0.29007 0.290287 0.290464 0.290667 0.290958
0.289371 0.289225 0.289023 0.288789 0.288568 0.288362 0.288215 0.288025 0.287763 0.287597 0.287366 0.287174 0.286963 0.286743 0.286605 0.286349 0.286186 0.285969 0.285814 0.285616 0.285493 0.285263 0.28501 0.284833 0.28461 0.284434 0.284246 0.284018 0.283908 0.283696 0.283521 0.2833 0.283119 0.282893 0.282692 0.282537 0.282407 0.2822 0.282018 0.281769 0.281616 0.281427 0.281242 0.281004 0.280918 0.280702 0.280542 0.280316 0.28013 0.279991 0.279769 0.279642 0.279436 0.27927 0.279158 0.278888 0.278771 0.278513 0.278391 0.278229 0.278088 0.277905 0.277734 0.277501 0.277323 0.277229 0.277091 0.276868 0.276701 0.276533 0.276324 0.276102 0.275955 0.275865 0.275621 0.275498 0.275324 0.275197 0.274969 0.274753 0.274663 0.274559 0.274395 0.274213 0.273977 0.273904 0.273719 0.273591 0.2734 0.273275 0.273122 0.272992 0.272774 0.272672 0.272521 0.272307 0.272213 0.272044 0.271927 0.271751 0.271576 0.27144 0.271261 0.271134 0.271009 0.270877 0.270735 0.270505 0.27037 0.270228 0.270159 0.270018 0.26984 0.26968 0.269545 0.269421 0.269231 0.269122 0.268981 0.268835 0.268725 0.268583 0.268415 0.268341 0.268191 0.268044 0.267905 0.267753 0.267622 0.26746 0.267381 0.267228 0.267101 0.266971 0.266875 0.266774 0.266557 0.266438 0.266299 0.266274 0.266076 0.265959 0.265831 0.265712 0.265637 0.265506 0.265372 0.265211 0.265109 0.264981 0.264866 0.26474 0.264607 0.264494 0.264404 0.264289 0.264094 0.264057 0.263954 0.263856 0.263739 0.263599 0.263455 0.263381 0.263251 0.263168 0.26307 0.262935 0.262854 0.262693 0.262587 0.262543 0.262485 0.262365 0.262194 0.262166 0.262021 0.261926 0.261843 0.261732 0.261635 0.261552 0.261434 0.261288 0.261252 0.261077 0.261015 0.260901 0.260855 0.26083 0.260684 0.260594 0.260505 0.260363 0.260299 0.260206 0.260081 0.260059 0.259946 0.259858 0.259806 0.259712 0.259629 0.259549 0.259413 0.259378 0.259281 0.259225 0.259137 0.259037 0.259003 0.258871 0.258722 0.258693 0.258658 0.258655 0.258526 0.258485 0.258393 0.258346 0.25819 0.25815 0.258074 0.257984 0.257963 0.25791 0.257812 0.257719 0.257679 0.257684 0.257547 0.257421 0.25745 0.257383 0.257311 0.257254 0.257176 0.257088 0.257012 0.256998 0.256955 0.256913 0.256825 0.256791 0.256688 0.256703 0.256614 0.256546 0.256531 0.256455 0.256406 0.256334 0.256332 0.256253 0.256257 0.256159 0.256094 0.25611 0.256046 0.255998 0.255962 0.255935 0.255916 0.255855 0.25581 0.255762 0.255733 0.255652 0.255617 0.255561 0.255543 0.255519 0.255522 0.255508 0.255405 0.255439 0.255322 0.255331 0.255269 0.255244 0.255279 0.255229 0.255158 0.255217 0.255153 0.255087 0.255104 0.255078 0.255051 0.25504 0.254967 0.254993 0.254975 0.254953 0.254938 0.254937 0.254938 0.254885 0.254879 0.254836 0.254792 0.254801 0.254812 0.254817 0.254769 0.254798 0.254765 0.25473 0.25476 0.254766 0.254757 0.254708 0.254713 0.254713 0.254675 0.254685 0.254741 0.254729 0.254674 0.254689 0.254696 0.254735 0.254747 0.254703 0.254705 0.254723 0.254745 0.254728 0.254734 0.254742 0.254721 0.254738 0.254757 0.254764 0.254763 0.254774 0.254827 0.254792 0.25484 0.254865 0.254851 0.254922 0.254947 0.25491 0.254938 0.254941 0.254956 0.254972 0.255049 0.255097 0.255113 0.255121 0.25512 0.255108 0.255139 0.255161 0.255149 0.255163 0.255274 0.255258 0.255372 0.255376 0.255436 0.255397 0.255466 0.25555 0.255569 0.255578 0.255637 0.255652 0.255656 0.255726 0.255735 0.255766 0.255797 0.255904 0.255895 0.255977 0.255952 0.256101 0.256059 0.256108 0.256204 0.25621 0.256267 0.256324 0.256316 0.256409 0.256477 0.256525 0.256558 0.256633 0.256672 0.256772 0.256771 0.256795 0.256892 0.256941 0.257001 0.257027 0.257139 0.257232 0.257185 0.257296 0.257329 0.257435 0.257532 0.257585 0.257654 0.257647 0.257783 0.257831 0.257922 0.257948 0.258023 0.258057 0.25813 0.25817 0.258272 0.258363 0.258497 0.258455 0.258596 0.258635 0.258683 0.258836 0.258891 0.258995 0.259023 0.259146 0.259201 0.259301 0.259387 0.259485 0.259518 0.259653 0.259794 0.259768 0.259854 0.259912 0.259995 0.260073 0.26022 0.260319 0.260447 0.260492 0.260572 0.260642 0.260766 0.260883 0.260905 0.261055 0.261087 0.261279 0.261353 0.26139 0.261487 0.261597 0.261714 0.261794 0.261993 0.262035 0.262182 0.262231 0.262389 0.262438 0.262541 0.262614 0.262731 0.26286 0.262981 0.263057 0.263148 0.263267 0.263382 0.263438 0.26355 0.263745 0.263846 0.26397 0.264065 0.264226 0.264271 0.264386 0.264574 0.264603 0.264778 0.264861 0.264937 0.265157 0.265273 0.265339 0.265475 0.265553 0.265698 0.26584 0.265949 0.266128 0.266229 0.266421 0.266496 0.266595 0.266708 0.2668 0.266977 0.26711 0.267278 0.267357 0.26753 0.267582 0.267701 0.267899 0.268034 0.268193 0.268333 0.268454 0.268581 0.268759 0.268884 0.268979 0.269113 0.269258 0.269409 0.269583 0.269743 0.269826 0.269974 0.270138 0.270313 0.270411 0.270547 0.270775 0.270803 0.271019 0.27111 0.271324 0.271413 0.27161 0.271664 0.271904 0.272052 0.272184 0.272357 0.272513 0.272645 0.272839 0.272991 0.273138 0.273258 0.273373 0.273552 0.273718 0.273925 0.274138 0.274238 0.274363 0.274502 0.274725 0.274901 0.275047 0.275175 0.27538 0.275463 0.275663 0.275895 0.276013 0.276175 0.276344 0.276493 0.276593 0.276858 0.277021 0.277219 0.277374 0.27753 0.27772 0.277919 0.278017 0.278158 0.278381 0.278571 0.278774 0.278886 0.279128 0.279276 0.279482 0.279628 0.279799 0.279971 0.280196 0.280355 0.28049 0.280706 0.280835 0.281076 0.281236 0.281445 0.28163 0.281799 0.281892 0.282179 0.282381 0.282578 0.282759 0.282928 0.283111 0.283294 0.283464 0.283657 0.283851 0.284076 0.284329 0.284435 0.284648 0.284861 0.284971 0.285132 0.285408 0.285596 0.285791 0.28603 0.286166 0.286352 0.286551 0.286798 0.286977 0.287166 0.28737 0.287591 0.287785 0.288031 0.288254 0.288385 0.288528 0.288758 0.288978 0.289228 0.289439 0.289641
0.288175 0.287859 0.28772 0.287507 0.287347 0.287166 0.286951 0.286737 0.286471 0.286303 0.286138 0.285949 0.285765 0.285487 0.285336 0.285105 0.284971 0.2847 0.284539 0.284363 0.284144 0.283949 0.283792 0.283534 0.283342 0.283232 0.283007 0.282782 0.282621 0.282432 0.282203 0.282002 0.281877 0.28166 0.281481 0.281385 0.281083 0.280899 0.280704 0.280551 0.280365 0.280187 0.280056 0.279819 0.279674 0.279481 0.27927 0.279023 0.278866 0.278785 0.27862 0.27839 0.278198 0.278044 0.277817 0.277721 0.277516 0.277271 0.277083 0.277008 0.276809 0.276621 0.27644 0.276284 0.27619 0.27607 0.275796 0.275584 0.275471 0.275227 0.275158 0.274934 0.274773 0.274667 0.274476 0.274334 0.274188 0.273975 0.273787 0.273642 0.27353 0.273308 0.273146 0.273031 0.272873 0.272693 0.272514 0.2724 0.27223 0.272129 0.271951 0.271796 0.271595 0.271433 0.271284 0.271168 0.270998 0.270829 0.270748 0.270491 0.270426 0.270272 0.27009 0.269908 0.269812 0.269652 0.269534 0.269383 0.269236 0.269067 0.268951 0.268806 0.268636 0.268519 0.268377 0.268239 0.268078 0.267941 0.267742 0.267635 0.267555 0.267403 0.267243 0.26713 0.266988 0.266862 0.26674 0.266537 0.266439 0.266317 0.266255 0.266125 0.265986 0.265868 0.265675 0.26556 0.265407 0.265327 0.265176 0.265069 0.264907 0.264756 0.264679 0.264589 0.26445 0.264289 0.264206 0.264075 0.263972 0.263884 0.263715 0.263618 0.263487 0.263366 0.263238 0.263121 0.263038 0.262954 0.262806 0.26272 0.262523 0.262475 0.262338 0.262227 0.262138 0.262027 0.261896 0.261809 0.261712 0.261624 0.261517 0.261321 0.261304 0.26121 0.261133 0.261 0.260899 0.260779 0.26067 0.260595 0.260458 0.260374 0.260263 0.260195 0.260095 0.26002 0.259894 0.259847 0.259717 0.259627 0.259527 0.259452 0.259328 0.25929 0.259186 0.259121 0.259047 0.258912 0.258734 0.25874 0.258687 0.258543 0.258522 0.258403 0.25836 0.25825 0.258164 0.258081 0.258002 0.257944 0.257824 0.257801 0.257652 0.25764 0.257567 0.257499 0.257391 0.257326 0.257261 0.2572 0.257109 0.257078 0.256971 0.256908 0.256866 0.256795 0.256676 0.256582 0.256562 0.256488 0.256448 0.256366 0.256339 0.256254 0.256154 0.25614 0.256075 0.256031 0.255998 0.255932 0.255828 0.255793 0.255704 0.255709 0.255625 0.25558 0.255537 0.255455 0.255369 0.2554 0.255318 0.255272 0.25524 0.255133 0.255053 0.25507 0.255002 0.254957 0.254966 0.254896 0.254815 0.254792 0.254766 0.254746 0.254646 0.254644 0.254604 0.254571 0.254552 0.254511 0.254437 0.254425 0.254404 0.254331 0.254357 0.254319 0.254268 0.254244 0.25423 0.254192 0.254182 0.254106 0.254129 0.254013 0.254018 0.254065 0.253963 0.254008 0.253944 0.253928 0.253855 0.25385 0.253847 0.253826 0.253831 0.253834 0.253819 0.253765 0.253738 0.253784 0.253773 0.253709 0.253733 0.253685 0.253681 0.253704 0.253632 0.253662 0.253658 0.253617 0.253673 0.25361 0.25364 0.253597 0.253633 0.253625 0.253645 0.253594 0.2536 0.253575 0.25361 0.253622 0.253603 0.253643 0.25355 0.253646 0.25357 0.253599 0.253671 0.253691 0.253675 0.253705 0.253727 0.253673 0.253692 0.253675 0.253725 0.253752 0.253688 0.253765 0.253779 0.253814 0.253819 0.253837 0.253823 0.253868 0.253843 0.253894 0.253942 0.253931 0.25398 0.254038 0.254047 0.254011 0.254028 0.254062 0.254101 0.254122 0.254169 0.254171 0.254281 0.254266 0.254272 0.254286 0.254305 0.254453 0.254424 0.254518 0.254493 0.254537 0.254571 0.254579 0.254639 0.254684 0.254703 0.254752 0.254777 0.254837 0.254842 0.254886 0.255005 0.255041 0.255065 0.255126 0.25513 0.255229 0.255288 0.255308 0.255339 0.255412 0.255428 0.255549 0.255659 0.255654 0.255659 0.255719 0.255796 0.255817 0.25589 0.255942 0.255974 0.256073 0.256084 0.256206 0.25625 0.256337 0.256364 0.256391 0.256469 0.25659 0.256625 0.256716 0.25681 0.256794 0.256885 0.256978 0.257049 0.257118 0.257186 0.257278 0.257313 0.257422 0.25747 0.25754 0.257643 0.257669 0.257723 0.257868 0.257952 0.258045 0.258085 0.258147 0.258219 0.258338 0.258418 0.258512 0.258571 0.258629 0.25875 0.258816 0.258947 0.258987 0.25913 0.259194 0.25925 0.259338 0.259461 0.25954 0.259674 0.259717 0.259843 0.259916 0.259963 0.260103 0.260194 0.260374 0.260361 0.26053 0.260566 0.260676 0.260834 0.260868 0.260946 0.261076 0.261147 0.261289 0.261378 0.26147 0.261572 0.261698 0.261806 0.261879 0.26207 0.262195 0.262227 0.262398 0.262467 0.262521 0.262689 0.262822 0.262929 0.263087 0.26309 0.263299 0.263365 0.263444 0.263635 0.263734 0.263808 0.263935 0.26409 0.264223 0.264328 0.264438 0.264619 0.264621 0.264764 0.264893 0.265107 0.265154 0.265355 0.265478 0.265502 0.265747 0.265735 0.265903 0.266067 0.266147 0.266315 0.266514 0.266589 0.266741 0.266861 0.266982 0.267202 0.26729 0.267395 0.267584 0.26767 0.267806 0.26795 0.268089 0.268232 0.268366 0.268506 0.26865 0.2688 0.268901 0.269104 0.269206 0.26941 0.269545 0.269645 0.269767 0.269985 0.27007 0.270231 0.27044 0.270542 0.270697 0.270798 0.271016 0.271201 0.271277 0.271493 0.271622 0.27176 0.271896 0.272037 0.272204 0.272309 0.272456 0.272702 0.272886 0.272992 0.273224 0.273394 0.273498 0.273649 0.273792 0.27393 0.274136 0.274299 0.274467 0.274589 0.274838 0.27494 0.275106 0.275329 0.275448 0.275622 0.275779 0.276003 0.276116 0.276318 0.276494 0.276679 0.276805 0.276964 0.277171 0.27728 0.277503 0.277699 0.27782 0.278075 0.2782 0.278382 0.278589 0.278707 0.278916 0.279054 0.279274 0.279506 0.279658 0.279857 0.280013 0.280179 0.280375 0.280576 0.280761 0.280925 0.281137 0.281279 0.281496 0.281677 0.281803 0.282007 0.282207 0.282417 0.282632 0.282762 0.282926 0.283205 0.28344 0.283553 0.283766 0.283922 0.28414 0.284342 0.284569 0.284717 0.284904 0.285143 0.285315 0.285484 0.285707 0.285926 0.286088 0.286334 0.286528 0.286723 0.286879 0.28705 0.287285 0.28749 0.287815 0.287889 0.288102 0.288342
0.2868 0.28663 0.286456 0.286262 0.286041 0.285863 0.285653 0.285403 0.285214 0.285097 0.284905 0.284626 0.284451 0.284262 0.284058 0.283853 0.2837 0.283494 0.283259 0.283082 0.28289 0.282698 0.282507 0.282347 0.28222 0.281946 0.281753 0.281596 0.281351 0.281105 0.280953 0.280831 0.280692 0.280468 0.280264 0.280077 0.279906 0.279726 0.279495 0.279345 0.279146 0.278944 0.278745 0.278595 0.27844 0.27825 0.278094 0.277846 0.277722 0.27748 0.277387 0.277197 0.276971 0.276839 0.276633 0.276555 0.276334 0.276105 0.275969 0.275827 0.275576 0.275438 0.275274 0.275078 0.274924 0.274753 0.274611 0.274411 0.274314 0.274127 0.273965 0.273778 0.273612 0.273439 0.273282 0.27313 0.273006 0.272819 0.272575 0.272465 0.272322 0.272157 0.271998 0.271764 0.271691 0.271577 0.271313 0.271205 0.27104 0.270864 0.270745 0.270552 0.270333 0.270252 0.270188 0.269968 0.269816 0.269668 0.269538 0.269372 0.269233 0.269075 0.26891 0.268772 0.268605 0.268422 0.268334 0.268144 0.268099 0.267935 0.267786 0.267633 0.267461 0.267263 0.267253 0.267098 0.266956 0.266813 0.266687 0.266536 0.266359 0.266264 0.266091 0.266 0.26584 0.265748 0.265567 0.265361 0.265287 0.265236 0.265051 0.264877 0.26479 0.264639 0.264531 0.264385 0.264271 0.264145 0.264048 0.263927 0.263748 0.263629 0.263523 0.263466 0.263304 0.263155 0.263044 0.262894 0.262839 0.262699 0.262598 0.262442 0.262367 0.26224 0.262137 0.26196 0.261905 0.2618 0.261669 0.261572 0.261424 0.261296 0.261178 0.261132 0.261031 0.260923 0.260785 0.260703 0.26058 0.260449 0.260362 0.260243 0.260154 0.260054 0.259977 0.259933 0.259759 0.259643 0.259615 0.259427 0.259365 0.259234 0.259172 0.259131 0.258979 0.258918 0.258835 0.258719 0.258571 0.258532 0.25841 0.258311 0.258226 0.258168 0.258091 0.257967 0.257863 0.257775 0.257679 0.257626 0.257572 0.257484 0.257417 0.257314 0.257251 0.257119 0.257068 0.256961 0.256934 0.25682 0.256768 0.256644 0.256538 0.256547 0.256502 0.256335 0.256299 0.256243 0.256135 0.256059 0.25598 0.255917 0.25588 0.255795 0.25581 0.255655 0.255575 0.255517 0.255436 0.255372 0.255367 0.255233 0.255242 0.255156 0.255083 0.254999 0.254956 0.254907 0.254871 0.254812 0.25478 0.254685 0.254626 0.254574 0.254503 0.254471 0.254421 0.254357 0.254303 0.254233 0.254235 0.254149 0.254056 0.254043 0.254005 0.253932 0.253945 0.253917 0.253811 0.253749 0.253752 0.253711 0.253675 0.253635 0.25364 0.253552 0.253482 0.253497 0.25346 0.253379 0.253386 0.25335 0.253256 0.25327 0.253219 0.253166 0.253207 0.253107 0.253122 0.253104 0.253059 0.253041 0.253013 0.252971 0.252974 0.252957 0.252917 0.252898 0.252897 0.252758 0.252846 0.252816 0.252755 0.252757 0.252739 0.252687 0.252689 0.252705 0.252683 0.252693 0.252617 0.252631 0.252592 0.252636 0.252542 0.252599 0.25257 0.252586 0.252551 0.252596 0.252586 0.252577 0.252566 0.252523 0.252539 0.252526 0.252506 0.252522 0.252518 0.252503 0.252551 0.252524 0.252516 0.252477 0.252538 0.252534 0.252512 0.252537 0.252512 0.252519 0.252546 0.252589 0.252584 0.252537 0.252595 0.252596 0.25261 0.2526 0.252618 0.252632 0.252676 0.252715 0.252711 0.252724 0.252775 0.252763 0.252786 0.252814 0.252866 0.25287 0.252894 0.252896 0.252946 0.252949 0.252978 0.252995 0.25302 0.253065 0.253067 0.253099 0.253093 0.253219 0.253178 0.253256 0.253237 0.253269 0.253393 0.253346 0.253408 0.253445 0.253447 0.253531 0.253564 0.253633 0.253645 0.253628 0.253686 0.253763 0.253846 0.253818 0.253873 0.253907 0.253934 0.254033 0.254078 0.254122 0.254146 0.25428 0.254237 0.254334 0.254327 0.254359 0.254461 0.254488 0.254571 0.254676 0.254649 0.254764 0.25481 0.254862 0.254893 0.254972 0.255025 0.255122 0.255168 0.255212 0.255279 0.255319 0.255396 0.255506 0.25551 0.255619 0.25564 0.255734 0.255825 0.255874 0.255932 0.255993 0.256089 0.256158 0.256205 0.256259 0.2564 0.256429 0.256556 0.256618 0.256631 0.256748 0.256851 0.256897 0.256968 0.257103 0.257163 0.257233 0.257227 0.257435 0.257506 0.257585 0.25764 0.257694 0.257763 0.257886 0.257919 0.258063 0.258134 0.258215 0.258339 0.258386 0.25854 0.258604 0.258698 0.258839 0.258902 0.259042 0.259099 0.259136 0.259252 0.259366 0.259467 0.259484 0.259653 0.259727 0.259855 0.259966 0.260036 0.260191 0.260266 0.260342 0.260498 0.260589 0.260698 0.260812 0.26093 0.261013 0.261091 0.261229 0.261367 0.261428 0.261534 0.261718 0.261772 0.261907 0.261983 0.262125 0.262229 0.262356 0.262483 0.262583 0.262643 0.262815 0.262924 0.263068 0.263215 0.263278 0.263448 0.263477 0.263714 0.263772 0.263853 0.263998 0.264186 0.264298 0.264402 0.264555 0.264632 0.264779 0.264905 0.264984 0.265248 0.265286 0.265461 0.265621 0.265668 0.26577 0.265987 0.266158 0.266227 0.266432 0.266445 0.266614 0.266805 0.266985 0.267091 0.267205 0.267316 0.267491 0.267599 0.267758 0.26789 0.268031 0.268216 0.268368 0.268523 0.268606 0.268732 0.268923 0.269035 0.269194 0.269364 0.269516 0.269636 0.269864 0.270023 0.270137 0.270288 0.270408 0.270581 0.270754 0.270843 0.271083 0.271215 0.271343 0.271518 0.271709 0.271786 0.271979 0.272147 0.272297 0.272456 0.272633 0.272797 0.272948 0.273105 0.273243 0.273405 0.273625 0.273763 0.274001 0.274078 0.274268 0.274429 0.274606 0.27472 0.274977 0.275115 0.275263 0.275458 0.275648 0.275804 0.275939 0.27611 0.276373 0.276457 0.276687 0.276821 0.276951 0.277236 0.277323 0.277546 0.277694 0.277813 0.27802 0.278234 0.278427 0.278624 0.278746 0.278964 0.279174 0.279316 0.279547 0.279649 0.279813 0.280077 0.280211 0.280456 0.280682 0.280824 0.281087 0.28119 0.28129 0.281525 0.281779 0.281924 0.282096 0.282296 0.282462 0.282647 0.282842 0.283116 0.283278 0.283476 0.283704 0.283874 0.284065 0.284282 0.284426 0.284645 0.2848 0.285079 0.285274 0.285489 0.285614 0.28581 0.286022 0.286252 0.286442 0.286627 0.286786 0.287042
0.285543 0.285383 0.285174 0.28497 0.284881 0.284616 0.284443 0.284164 0.28399 0.283794 0.283545 0.28339 0.283255 0.283016 0.282853 0.282654 0.282411 0.282274 0.281984 0.281808 0.281615 0.281472 0.281277 0.281139 0.280926 0.280763 0.280506 0.280359 0.28012 0.279971 0.279828 0.279586 0.279374 0.27915 0.279024 0.278843 0.278655 0.278441 0.278332 0.278107 0.277856 0.277753 0.277539 0.277385 0.277191 0.276997 0.276852 0.276716 0.27652 0.276304 0.276158 0.275962 0.275846 0.275618 0.275422 0.275305 0.275079 0.274962 0.274784 0.274527 0.27441 0.274221 0.274011 0.2739 0.273727 0.273573 0.2734 0.273208 0.273042 0.272902 0.272701 0.2726 0.272427 0.27223 0.272075 0.271932 0.271778 0.271572 0.271407 0.271279 0.271156 0.270956 0.270783 0.270658 0.270478 0.270308 0.27014 0.270038 0.26983 0.269728 0.269532 0.269403 0.26924 0.269102 0.268956 0.268769 0.268624 0.268511 0.268353 0.268233 0.268061 0.267926 0.267785 0.267598 0.267437 0.26732 0.267191 0.266997 0.266894 0.266757 0.266555 0.266526 0.266361 0.266176 0.266054 0.265923 0.265778 0.265642 0.265496 0.265398 0.265228 0.265129 0.264947 0.264793 0.264667 0.264562 0.264409 0.264259 0.264158 0.263983 0.263916 0.263773 0.263615 0.26353 0.263405 0.263257 0.263209 0.263024 0.262895 0.262751 0.262619 0.262503 0.262404 0.262308 0.262141 0.262069 0.261981 0.261821 0.26167 0.261575 0.261426 0.261328 0.261221 0.26114 0.260996 0.26089 0.260741 0.260628 0.26054 0.260458 0.260375 0.260212 0.260105 0.260075 0.259965 0.259773 0.259664 0.259546 0.259476 0.259333 0.259268 0.259115 0.259016 0.258977 0.258883 0.258754 0.258618 0.258511 0.258418 0.25835 0.258238 0.258228 0.258106 0.257955 0.257856 0.257776 0.257647 0.257555 0.257525 0.257421 0.257285 0.25722 0.257132 0.25706 0.256938 0.256838 0.256842 0.256655 0.256611 0.256527 0.256449 0.256411 0.256262 0.256191 0.256142 0.256063 0.25596 0.255946 0.255784 0.255647 0.255706 0.255513 0.255511 0.255419 0.255301 0.255265 0.255203 0.255116 0.255024 0.255014 0.254918 0.254849 0.254807 0.254688 0.254673 0.254574 0.254494 0.25447 0.254375 0.254303 0.254248 0.25416 0.254109 0.254091 0.253945 0.253955 0.253834 0.253814 0.253786 0.253706 0.253655 0.253613 0.253545 0.253482 0.253468 0.253393 0.25332 0.253273 0.25322 0.253177 0.253134 0.253065 0.252961 0.252975 0.252919 0.252893 0.252843 0.252777 0.252762 0.252693 0.252645 0.252624 0.252564 0.252543 0.252516 0.252458 0.252416 0.252456 0.252398 0.252308 0.252291 0.252243 0.2522 0.252173 0.252205 0.252123 0.25212 0.252024 0.251958 0.252029 0.251953 0.251959 0.251952 0.251945 0.25186 0.251798 0.251783 0.251829 0.251765 0.251808 0.251734 0.25169 0.251684 0.251683 0.2517 0.251628 0.251634 0.251623 0.251622 0.25163 0.251559 0.251548 0.251578 0.251543 0.251506 0.251507 0.251483 0.25148 0.251469 0.25153 0.251436 0.251475 0.25146 0.251465 0.251466 0.25147 0.251435 0.251426 0.251418 0.251382 0.25141 0.251407 0.251428 0.25144 0.25144 0.251493 0.251515 0.251482 0.251528 0.251456 0.251554 0.251499 0.251496 0.251533 0.251515 0.251585 0.251535 0.251588 0.251618 0.251605 0.251662 0.25165 0.251617 0.251668 0.251682 0.251708 0.251723 0.251711 0.251742 0.251773 0.251774 0.251851 0.251878 0.251889 0.251861 0.25187 0.251966 0.251946 0.252016 0.252046 0.252076 0.252139 0.252115 0.252155 0.252198 0.252215 0.252279 0.252297 0.252265 0.252352 0.252346 0.25243 0.252509 0.252487 0.25255 0.252628 0.252599 0.252638 0.2527 0.252728 0.252835 0.252923 0.252925 0.252903 0.252949 0.253026 0.253133 0.253136 0.253145 0.253227 0.253304 0.253329 0.2534 0.253424 0.253492 0.253587 0.253587 0.253668 0.253694 0.253738 0.2538 0.253892 0.253937 0.254004 0.254066 0.25417 0.254186 0.254204 0.254306 0.254397 0.254443 0.254498 0.254558 0.254633 0.254722 0.254833 0.25491 0.254866 0.25498 0.25507 0.255064 0.255214 0.255259 0.25531 0.255447 0.255506 0.255514 0.255598 0.255763 0.255796 0.25588 0.255981 0.256023 0.25607 0.256183 0.256283 0.256383 0.256415 0.25651 0.256628 0.256703 0.256843 0.256889 0.256997 0.257116 0.257148 0.257213 0.257304 0.257379 0.257519 0.257644 0.257731 0.257783 0.257849 0.257954 0.258084 0.258124 0.258243 0.258368 0.258454 0.258582 0.258625 0.258695 0.258827 0.258961 0.259027 0.259185 0.259229 0.259339 0.259485 0.259572 0.259658 0.259778 0.259886 0.259935 0.260119 0.260205 0.260312 0.260429 0.260563 0.260602 0.260737 0.260844 0.260983 0.261101 0.261257 0.26132 0.261427 0.261562 0.261662 0.261734 0.26192 0.262082 0.262192 0.262339 0.26245 0.262559 0.262648 0.262758 0.262857 0.263014 0.263168 0.263318 0.263378 0.263478 0.263629 0.263745 0.263932 0.26411 0.264148 0.264284 0.264402 0.264494 0.264647 0.264889 0.264978 0.265089 0.265283 0.265381 0.265504 0.265648 0.265757 0.265936 0.266078 0.266214 0.26627 0.266437 0.266577 0.266744 0.266913 0.267064 0.267211 0.267313 0.267437 0.267588 0.267757 0.267959 0.268015 0.268192 0.268344 0.268522 0.268629 0.268867 0.26901 0.26904 0.269234 0.269357 0.269527 0.269693 0.269836 0.270005 0.270121 0.270324 0.270485 0.270632 0.27079 0.270975 0.27107 0.2713 0.271414 0.271571 0.271785 0.271925 0.272023 0.272276 0.272434 0.272582 0.27277 0.272933 0.273089 0.27325 0.27344 0.273553 0.273705 0.273871 0.274101 0.274255 0.274487 0.274615 0.274808 0.2749 0.275097 0.275261 0.27546 0.275661 0.27582 0.276071 0.276097 0.276319 0.27649 0.276641 0.276801 0.277018 0.277252 0.277387 0.277586 0.277711 0.277907 0.278122 0.2783 0.278468 0.278716 0.278836 0.279055 0.279193 0.279408 0.279644 0.279745 0.279911 0.280141 0.280251 0.280543 0.280669 0.280914 0.281045 0.281235 0.281417 0.281632 0.281852 0.282007 0.282274 0.282466 0.282659 0.282782 0.282966 0.283177 0.283397 0.28369 0.283777 0.283967 0.284182 0.284339 0.284554 0.284808 0.285013 0.285196 0.285396 0.285645 0.285744
0.284394 0.28405 0.284005 0.283716 0.283522 0.283362 0.283128 0.282921 0.282754 0.28256 0.282311 0.282219 0.281962 0.281825 0.28155 0.281379 0.281186 0.280907 0.280826 0.280633 0.280391 0.280229 0.280082 0.279872 0.279651 0.279441 0.279295 0.279111 0.278934 0.278749 0.278543 0.27831 0.278162 0.277981 0.277787 0.27759 0.277486 0.277303 0.27707 0.276898 0.276756 0.276552 0.276318 0.276173 0.275995 0.275835 0.275635 0.275497 0.275278 0.27515 0.274952 0.274849 0.274654 0.27438 0.27428 0.274111 0.273878 0.273757 0.273569 0.273401 0.273257 0.273058 0.272873 0.27272 0.272556 0.272384 0.27226 0.272034 0.271921 0.271694 0.271527 0.271381 0.271161 0.271061 0.270955 0.270743 0.270586 0.270367 0.270246 0.270158 0.269985 0.269797 0.269622 0.269437 0.269363 0.26916 0.269008 0.268884 0.268774 0.268572 0.268383 0.268189 0.268107 0.267994 0.267804 0.267665 0.267514 0.26734 0.26719 0.267077 0.266909 0.266687 0.266604 0.266465 0.266294 0.266208 0.266011 0.265924 0.265721 0.265599 0.265502 0.265344 0.265226 0.265012 0.264881 0.264764 0.264622 0.264532 0.264388 0.264166 0.264097 0.263944 0.263812 0.263697 0.263576 0.263435 0.263275 0.263186 0.263084 0.262883 0.262772 0.262612 0.262486 0.262415 0.262284 0.262183 0.262048 0.261914 0.261723 0.261675 0.261564 0.261404 0.261313 0.261131 0.260985 0.260887 0.260809 0.260655 0.260586 0.260428 0.260303 0.260219 0.260102 0.260009 0.25987 0.259798 0.259669 0.259556 0.259449 0.2593 0.259173 0.259085 0.259024 0.258882 0.258791 0.258682 0.258579 0.25848 0.258325 0.258291 0.258138 0.258056 0.257976 0.257837 0.257743 0.257664 0.257505 0.257396 0.257322 0.257292 0.257153 0.257055 0.256973 0.256888 0.25677 0.256652 0.256573 0.256513 0.256402 0.256347 0.256204 0.256193 0.256124 0.255919 0.255843 0.255769 0.255679 0.255612 0.255513 0.255472 0.255356 0.255228 0.255196 0.255111 0.254947 0.255022 0.254872 0.254807 0.254685 0.254632 0.254574 0.254482 0.254413 0.254361 0.254212 0.254215 0.254096 0.25407 0.253987 0.25389 0.253835 0.253741 0.253691 0.253635 0.253558 0.253474 0.253436 0.253393 0.253257 0.25322 0.253151 0.253097 0.253026 0.253005 0.252938 0.252824 0.252762 0.252713 0.252676 0.252586 0.252581 0.252576 0.25244 0.252395 0.252352 0.25227 0.25231 0.252171 0.252196 0.252176 0.252055 0.252023 0.251919 0.251873 0.25186 0.251798 0.251786 0.251785 0.251651 0.25163 0.251632 0.251507 0.25152 0.251543 0.251425 0.251473 0.251408 0.251331 0.251314 0.251222 0.251228 0.251158 0.251156 0.251127 0.251125 0.251088 0.25101 0.250963 0.250974 0.250921 0.250944 0.250919 0.250862 0.250826 0.25078 0.250779 0.250789 0.250773 0.250736 0.250715 0.250713 0.250698 0.250622 0.25058 0.250608 0.250575 0.250577 0.250534 0.250512 0.250522 0.250514 0.250472 0.250484 0.250454 0.250486 0.250423 0.250454 0.250449 0.250456 0.250394 0.250366 0.250374 0.250384 0.250396 0.250387 0.250428 0.250416 0.250354 0.250324 0.250446 0.250384 0.250346 0.250388 0.250432 0.2504 0.250399 0.250431 0.250378 0.250426 0.250411 0.250408 0.25044 0.250425 0.250457 0.250466 0.25043 0.25047 0.250488 0.250541 0.25054 0.250549 0.250555 0.250588 0.25057 0.250602 0.250648 0.250654 0.250716 0.250668 0.250689 0.250749 0.250728 0.25081 0.250778 0.250834 0.250844 0.250881 0.250867 0.250922 0.250974 0.251013 0.250997 0.251062 0.251148 0.251116 0.251155 0.251211 0.25129 0.251299 0.251335 0.251303 0.251333 0.251407 0.251413 0.251544 0.251572 0.251549 0.251613 0.251672 0.251681 0.25171 0.251746 0.251842 0.251865 0.251897 0.251919 0.252004 0.252056 0.252109 0.252144 0.252156 0.252244 0.252327 0.252359 0.252452 0.252474 0.25249 0.252587 0.252628 0.252657 0.252702 0.252772 0.252898 0.252925 0.252998 0.253065 0.25308 0.253128 0.253263 0.25327 0.253408 0.253391 0.253457 0.253623 0.253593 0.253702 0.253746 0.253837 0.253914 0.253993 0.254069 0.254076 0.254187 0.254233 0.254359 0.25442 0.254463 0.254579 0.254658 0.254689 0.254768 0.254887 0.254919 0.255042 0.255088 0.255204 0.255285 0.255362 0.255455 0.255525 0.255569 0.255674 0.255742 0.255879 0.255958 0.256066 0.256095 0.256157 0.256342 0.256425 0.256508 0.256578 0.256681 0.256765 0.256822 0.256987 0.257078 0.257159 0.257295 0.25735 0.257419 0.257541 0.257621 0.257701 0.257831 0.257949 0.258053 0.258158 0.258209 0.258391 0.258433 0.258581 0.258682 0.258757 0.258861 0.258975 0.259078 0.259215 0.259325 0.259391 0.259518 0.259618 0.259743 0.259875 0.260005 0.260138 0.260256 0.260343 0.260451 0.260585 0.260672 0.260823 0.260927 0.261082 0.261189 0.261301 0.261414 0.261525 0.261625 0.261799 0.261876 0.26201 0.26216 0.262292 0.262402 0.262499 0.262636 0.262769 0.262935 0.263062 0.263197 0.263359 0.263459 0.263555 0.263665 0.263734 0.263992 0.264088 0.26422 0.264392 0.264501 0.264603 0.264771 0.264899 0.264979 0.265207 0.26531 0.26545 0.265624 0.26578 0.265909 0.265994 0.266142 0.266383 0.266475 0.266656 0.266802 0.266929 0.266974 0.267113 0.26732 0.267534 0.267719 0.267762 0.267924 0.268092 0.268227 0.268355 0.268571 0.268686 0.26882 0.269014 0.269158 0.269358 0.269465 0.269604 0.26979 0.269916 0.270147 0.27025 0.270379 0.270614 0.270725 0.270956 0.271037 0.271216 0.27141 0.271587 0.271692 0.271927 0.272041 0.272176 0.272421 0.272584 0.272723 0.27291 0.273057 0.273194 0.273368 0.273571 0.27369 0.273908 0.274017 0.274295 0.274422 0.274605 0.274817 0.274908 0.275103 0.275298 0.27545 0.275673 0.275862 0.276028 0.276233 0.276378 0.276528 0.276748 0.276899 0.277096 0.27725 0.277475 0.277606 0.277825 0.277994 0.278217 0.278392 0.278568 0.278782 0.278924 0.279033 0.279346 0.279483 0.279647 0.279926 0.279997 0.280309 0.280447 0.280594 0.280751 0.281046 0.281149 0.281386 0.281561 0.281788 0.281943 0.282166 0.282349 0.282492 0.2827 0.282919 0.283165 0.283352 0.283509 0.283776 0.283909 0.284083 0.284306 0.284533
0.283159 0.282952 0.282735 0.282502 0.282294 0.282135 0.28191 0.281754 0.281529 0.281325 0.281138 0.280931 0.280749 0.280551 0.280331 0.280178 0.279978 0.279786 0.279572 0.279431 0.279203 0.279023 0.278783 0.278661 0.278492 0.278262 0.278156 0.277854 0.277788 0.277538 0.277331 0.27712 0.277022 0.276823 0.276608 0.276454 0.276251 0.276004 0.275936 0.275672 0.27553 0.275368 0.275138 0.27504 0.274786 0.274623 0.274495 0.274309 0.274091 0.273965 0.273753 0.273558 0.273351 0.273178 0.27308 0.272889 0.272721 0.272611 0.27234 0.272217 0.272086 0.271856 0.2717 0.271518 0.271421 0.271184 0.271078 0.27085 0.270751 0.270582 0.270432 0.270209 0.270053 0.269904 0.269698 0.269617 0.269486 0.26932 0.269095 0.26901 0.268762 0.268621 0.268457 0.268342 0.268162 0.268013 0.267872 0.267709 0.267547 0.267413 0.267272 0.267121 0.266944 0.266786 0.26663 0.266481 0.266348 0.266224 0.266046 0.265979 0.265734 0.26559 0.265459 0.265359 0.265177 0.265039 0.264882 0.264694 0.264577 0.264443 0.264328 0.264195 0.26408 0.263919 0.263794 0.263667 0.263501 0.263377 0.263272 0.263064 0.263009 0.262834 0.262732 0.262575 0.262397 0.262284 0.262162 0.262055 0.261914 0.261792 0.26168 0.261484 0.261454 0.261217 0.261162 0.261073 0.260805 0.260818 0.260608 0.260542 0.260416 0.260296 0.260158 0.260017 0.259906 0.259809 0.259738 0.259568 0.259475 0.259304 0.25922 0.259069 0.259012 0.258955 0.258769 0.258671 0.258539 0.25847 0.258312 0.258247 0.258137 0.257968 0.257916 0.257759 0.257626 0.25755 0.257456 0.257357 0.257277 0.257139 0.257048 0.256912 0.256875 0.256733 0.256669 0.256519 0.256446 0.256361 0.25629 0.256095 0.256057 0.255996 0.255885 0.255769 0.255651 0.255637 0.255503 0.255391 0.255331 0.255223 0.255103 0.255079 0.254975 0.254829 0.25481 0.254717 0.254575 0.25458 0.254437 0.254385 0.254226 0.254143 0.254104 0.253988 0.253976 0.253875 0.2538 0.25369 0.253597 0.253549 0.253521 0.253407 0.253359 0.253221 0.253156 0.253115 0.253033 0.252992 0.252916 0.25283 0.252796 0.252735 0.252569 0.25254 0.252529 0.252429 0.252336 0.252315 0.252206 0.252142 0.252103 0.252061 0.251944 0.251965 0.251831 0.251818 0.251772 0.2517 0.251601 0.251567 0.251499 0.25149 0.251378 0.251383 0.251275 0.251229 0.251167 0.251122 0.251061 0.251059 0.250995 0.250943 0.250874 0.250886 0.250805 0.250791 0.250712 0.250682 0.250655 0.250634 0.250543 0.25047 0.250427 0.250381 0.250359 0.250381 0.250306 0.25029 0.250241 0.250222 0.250168 0.250111 0.250068 0.250094 0.250025 0.250013 0.249991 0.249911 0.249888 0.249924 0.24984 0.249787 0.249811 0.249726 0.249715 0.249741 0.249643 0.249693 0.249625 0.249653 0.249625 0.249616 0.24956 0.2495 0.249568 0.249561 0.249521 0.249518 0.249455 0.24949 0.249455 0.249447 0.249471 0.249441 0.249461 0.249396 0.249382 0.249352 0.249356 0.24936 0.249392 0.249366 0.249345 0.249373 0.249289 0.249334 0.249324 0.249309 0.249317 0.249286 0.249308 0.249332 0.249346 0.249343 0.249313 0.249356 0.249371 0.249375 0.249362 0.249341 0.249397 0.249368 0.249406 0.249385 0.249422 0.249421 0.249416 0.249402 0.249491 0.249465 0.249493 0.249531 0.24954 0.249491 0.249569 0.249575 0.249597 0.249572 0.249635 0.249681 0.249695 0.249711 0.249697 0.249803 0.249745 0.249815 0.249841 0.249883 0.249935 0.249912 0.250013 0.249974 0.250051 0.250007 0.249997 0.250129 0.250107 0.250153 0.250212 0.250248 0.250268 0.250273 0.250356 0.250377 0.250391 0.250404 0.250524 0.250557 0.250575 0.250614 0.250728 0.250737 0.250749 0.250757 0.250849 0.250905 0.25095 0.250939 0.251 0.251109 0.251197 0.251236 0.25125 0.251293 0.251339 0.251421 0.251414 0.251545 0.251522 0.251659 0.251672 0.251775 0.251832 0.251816 0.251889 0.251952 0.252003 0.252121 0.252127 0.252228 0.252286 0.252344 0.252455 0.252495 0.252557 0.25265 0.252678 0.252775 0.252815 0.252932 0.25303 0.253064 0.253107 0.253166 0.253251 0.253278 0.253441 0.253536 0.253544 0.253602 0.253698 0.253792 0.253905 0.253998 0.254037 0.254127 0.254177 0.254274 0.254365 0.254457 0.254507 0.254561 0.254693 0.254786 0.254844 0.255005 0.255046 0.255132 0.255211 0.255344 0.255391 0.255439 0.255615 0.255617 0.255751 0.255867 0.256022 0.256047 0.256206 0.256255 0.256368 0.256462 0.256514 0.256637 0.256785 0.256887 0.256966 0.257022 0.257125 0.257249 0.257331 0.257485 0.257556 0.257698 0.257801 0.257894 0.257985 0.258099 0.258253 0.258349 0.258477 0.258511 0.258684 0.258811 0.2589 0.25901 0.259111 0.259246 0.259363 0.259491 0.259581 0.259635 0.259812 0.259935 0.260046 0.260174 0.260254 0.260456 0.26052 0.260599 0.260749 0.260869 0.261038 0.261184 0.261251 0.261397 0.26151 0.261663 0.261768 0.261898 0.262006 0.262182 0.262259 0.262452 0.262561 0.262682 0.262861 0.262962 0.26308 0.263235 0.263382 0.263483 0.263637 0.26382 0.263908 0.264076 0.264184 0.264382 0.264416 0.264527 0.26475 0.264899 0.264989 0.265193 0.265282 0.265456 0.265631 0.265748 0.26591 0.266005 0.266243 0.266348 0.266495 0.266661 0.266787 0.266936 0.267183 0.267303 0.267473 0.267571 0.267719 0.267901 0.267998 0.268179 0.268325 0.268487 0.268641 0.268763 0.268949 0.269076 0.269221 0.26934 0.26961 0.269709 0.269935 0.270052 0.27021 0.270409 0.270532 0.270714 0.270921 0.271053 0.271244 0.271383 0.271552 0.271734 0.271846 0.272048 0.272209 0.272361 0.272556 0.272735 0.272935 0.273069 0.273264 0.27338 0.273634 0.273776 0.273915 0.274126 0.274278 0.274462 0.274668 0.274799 0.274991 0.275178 0.275368 0.2755 0.275706 0.275861 0.276083 0.276265 0.276389 0.276595 0.276788 0.276961 0.277099 0.277353 0.277506 0.27772 0.277879 0.278079 0.278273 0.278432 0.27866 0.278848 0.279106 0.279198 0.279415 0.279588 0.279761 0.279936 0.28016 0.280344 0.28055 0.280757 0.280877 0.28109 0.281322 0.28152 0.281757 0.281936 0.282103 0.282356 0.282538 0.282703 0.282869 0.283177 0.28327
0.281867 0.281715 0.28152 0.281272 0.281102 0.280859 0.280621 0.280525 0.280269 0.280144 0.27995 0.279715 0.279568 0.279389 0.279124 0.278932 0.278758 0.278586 0.278418 0.278182 0.27807 0.277821 0.277616 0.277435 0.277255 0.277061 0.276948 0.276672 0.276557 0.276331 0.27614 0.275936 0.275788 0.275578 0.275424 0.275245 0.27507 0.274928 0.274703 0.274516 0.274336 0.274196 0.273979 0.273827 0.273628 0.273439 0.273341 0.273112 0.272904 0.272847 0.272613 0.272426 0.272281 0.272079 0.271908 0.271712 0.27153 0.27138 0.271252 0.271032 0.270909 0.270734 0.270545 0.27034 0.270208 0.270085 0.269864 0.269733 0.269572 0.269413 0.269225 0.269109 0.268917 0.268729 0.268556 0.268495 0.26826 0.268163 0.267933 0.267786 0.267693 0.267493 0.267328 0.267195 0.267061 0.266885 0.266714 0.266569 0.266432 0.266234 0.266085 0.265923 0.265741 0.265711 0.265531 0.265369 0.265216 0.265036 0.264954 0.264796 0.264581 0.264488 0.264388 0.264193 0.264084 0.263843 0.263723 0.26363 0.263506 0.26336 0.263223 0.263098 0.262921 0.262772 0.262646 0.262482 0.262361 0.262241 0.26211 0.261918 0.26185 0.261681 0.261594 0.261499 0.261381 0.261226 0.26109 0.260926 0.260793 0.260656 0.260556 0.260447 0.260325 0.260201 0.26004 0.259915 0.259786 0.259623 0.2596 0.259488 0.259313 0.259186 0.259044 0.258915 0.258849 0.258712 0.258621 0.258455 0.258349 0.258283 0.258167 0.258028 0.25788 0.257751 0.257683 0.257566 0.2574 0.257375 0.257281 0.257139 0.257001 0.256882 0.256825 0.256703 0.256563 0.256465 0.256419 0.256264 0.256211 0.25607 0.255961 0.255899 0.255792 0.255652 0.255546 0.255452 0.2554 0.25528 0.255176 0.255089 0.254987 0.254909 0.254785 0.25473 0.254643 0.254515 0.254406 0.254341 0.254205 0.25415 0.254094 0.253987 0.253852 0.253814 0.253709 0.253616 0.25355 0.2535 0.253296 0.25331 0.253226 0.253051 0.253052 0.252991 0.252887 0.25282 0.252748 0.252661 0.252593 0.252484 0.252396 0.252367 0.252268 0.252198 0.252122 0.252049 0.251979 0.2519 0.251847 0.251789 0.251708 0.251633 0.251591 0.251496 0.251406 0.251348 0.251249 0.251244 0.251184 0.251078 0.251085 0.250935 0.250907 0.250894 0.250734 0.250783 0.250639 0.250613 0.250579 0.250516 0.25043 0.25041 0.250338 0.250354 0.250219 0.250161 0.250143 0.250101 0.250041 0.249948 0.249935 0.249841 0.249863 0.249816 0.249766 0.249736 0.249643 0.24962 0.249578 0.249504 0.249508 0.249486 0.249443 0.249373 0.249376 0.249303 0.249265 0.249204 0.249166 0.249127 0.249134 0.249118 0.249121 0.24902 0.248996 0.248952 0.248941 0.248902 0.248894 0.248875 0.248843 0.248777 0.248765 0.248757 0.248692 0.248717 0.248669 0.248666 0.248581 0.248619 0.248549 0.248526 0.248487 0.248529 0.248523 0.248461 0.248497 0.248458 0.248457 0.248434 0.24845 0.248439 0.248392 0.248352 0.248371 0.248354 0.248365 0.248291 0.248324 0.248333 0.248284 0.248308 0.2483 0.248305 0.248285 0.248295 0.248223 0.248329 0.248255 0.248349 0.248318 0.248247 0.248319 0.248264 0.248332 0.248326 0.248302 0.248254 0.248311 0.248303 0.248359 0.248371 0.24837 0.248364 0.248301 0.248342 0.248429 0.248415 0.248496 0.248412 0.248456 0.248494 0.248466 0.24851 0.248569 0.248535 0.248516 0.248539 0.2486 0.248628 0.248685 0.248685 0.248688 0.248702 0.248717 0.248764 0.24879 0.248835 0.248827 0.248847 0.248933 0.248944 0.248956 0.249014 0.248999 0.249073 0.249055 0.249087 0.249153 0.249168 0.249238 0.249251 0.249275 0.249365 0.249399 0.249416 0.249446 0.249542 0.249549 0.249593 0.249653 0.249651 0.249725 0.249741 0.249829 0.249875 0.249855 0.249893 0.24999 0.250003 0.250086 0.250137 0.250226 0.25025 0.250239 0.250366 0.250376 0.250516 0.250514 0.250516 0.250573 0.25068 0.250718 0.250768 0.250825 0.250938 0.251031 0.251062 0.251104 0.251157 0.251232 0.251257 0.25139 0.251439 0.251497 0.251521 0.251581 0.251704 0.251747 0.251863 0.251936 0.251965 0.251999 0.252095 0.252209 0.252255 0.252313 0.252419 0.252473 0.252582 0.252694 0.252719 0.252829 0.252894 0.252914 0.253053 0.253163 0.253198 0.253344 0.253407 0.253458 0.253554 0.253622 0.253717 0.253773 0.253908 0.254 0.254008 0.254127 0.25422 0.254303 0.254425 0.254511 0.254624 0.254662 0.254806 0.254888 0.254956 0.255074 0.255162 0.255287 0.25538 0.255443 0.255562 0.255637 0.255749 0.255901 0.255947 0.256066 0.256163 0.256261 0.256353 0.256451 0.256567 0.25674 0.256778 0.256852 0.257015 0.25711 0.257243 0.257373 0.257479 0.257606 0.257688 0.257791 0.257906 0.25802 0.258173 0.258243 0.258405 0.25851 0.258532 0.258701 0.25883 0.258936 0.259042 0.259205 0.259316 0.259442 0.259505 0.259646 0.259787 0.259947 0.260148 0.260192 0.26029 0.260417 0.260566 0.260678 0.260825 0.260933 0.261096 0.26114 0.261361 0.26143 0.261597 0.26175 0.261827 0.261952 0.262122 0.26226 0.26235 0.26255 0.262673 0.262801 0.262952 0.2631 0.263264 0.263293 0.263438 0.263603 0.263747 0.263933 0.264117 0.264212 0.264388 0.264444 0.264657 0.264738 0.264913 0.265085 0.265198 0.265364 0.265527 0.265697 0.265847 0.265938 0.266083 0.266248 0.266472 0.266591 0.266626 0.266849 0.267033 0.267143 0.267374 0.267523 0.267706 0.26778 0.267964 0.268111 0.268291 0.268428 0.268602 0.268777 0.268959 0.269105 0.26921 0.26939 0.269523 0.269697 0.269918 0.270032 0.270157 0.270364 0.270558 0.270704 0.270876 0.271036 0.271287 0.271413 0.271611 0.271731 0.271914 0.272088 0.272261 0.272393 0.272597 0.272735 0.272963 0.273089 0.273211 0.273495 0.273637 0.273862 0.274005 0.274149 0.274368 0.274502 0.27468 0.274898 0.275047 0.275267 0.27545 0.275613 0.275794 0.275974 0.276129 0.276382 0.27657 0.276741 0.276873 0.277054 0.277258 0.277408 0.27764 0.277845 0.278028 0.278198 0.278434 0.278616 0.278752 0.278995 0.279177 0.279405 0.279557 0.279716 0.279872 0.280105 0.280319 0.280516 0.280665 0.280916 0.281087 0.281275 0.281478 0.281767 0.28188 0.282073
