0.270583 0.289608 0.289629 0.289622 0.289619 0.289595 0.289606 0.289614 0.28962 0.2896 0.289604 0.289626 0.289609 0.289608 0.289621 0.289617 0.289601 0.289627 0.289583 0.289614 0.289624 0.289604 0.289614 0.289612 0.289598 0.289619 0.289606 0.28962 0.289614 0.289611 0.289611 0.289608 0.289633 0.289627 0.289606 0.289609 0.289624 0.289611 0.289598 0.289611 0.289599 0.289614 0.289622 0.289615 0.289608 0.289633 0.289594 0.289622 0.289617 0.289604 0.28961 0.289622 0.289629 0.289618 0.289611 0.289584 0.289615 0.289601 0.28963 0.289634 0.289628 0.289625 0.289603 0.289625 0.289601 0.289595 0.289626 0.289627 0.28961 0.289613 0.289597 0.289623 0.289616 0.289611 0.289614 0.28961 0.289609 0.289601 0.289601 0.289619 0.289623 0.289605 0.289637 0.289656 0.289596 0.289577 0.289611 0.289605 0.2896 0.289611 0.289619 0.289609 0.289612 0.289635 0.289608 0.289603 0.289595 0.2896 0.289628 0.289609 0.289614 0.289611 0.289613 0.289582 0.289633 0.289608 0.289596 0.289618 0.289616 0.289621 0.289623 0.289611 0.289594 0.289608 0.289618 0.28962 0.289651 0.289623 0.289596 0.289623 0.289612 0.289587 0.289617 0.289607 0.289613 0.289621 0.289623 0.289603 0.289597 0.289604 0.289632 0.289605 0.289612 0.270013 0.22454 0.223959 0.223612 0.223376 0.223143 0.223038 0.223164 0.223324 0.250309 0.289636 0.289611 0.289628 0.289608 0.289594 0.289617 0.289593 0.289624 0.289647 0.289589 0.289609 0.289636 0.289596 0.289625 0.249911 0.240257 0.239028 0.238105 0.237298 0.236834 0.236382 0.235943 0.235579 0.235269 0.234965 0.234657 0.234402 0.23426 0.234122 0.233984 0.233841 0.233702 0.233611 0.233533 0.233456 0.233377 0.233301 0.233232 0.233223 0.233224 0.233224 0.233224 0.233224 0.233242 0.2333 0.23337 0.23344 0.233513 0.233582 0.233656 0.233774 0.233917 0.23406 0.234203 0.234344 0.234488 0.234666 0.234883 0.235102 0.235319 0.235542 0.235759 0.236029 0.236328 0.23664 0.236946 0.237255 0.237585 0.237995 0.238413 0.238838 0.239247 0.239737 0.240294 0.240872 0.241449 0.242132 0.242937 0.243745 0.244806 0.246076 0.249446 0.289605 0.289594 0.289613 0.28962 0.289593 0.289604 0.289617 0.289586 0.289601 0.289614 0.289626 0.289649 0.289601 0.289616 0.289643 0.289615 0.2896 0.289618 0.289616 0.289597 0.289625 0.289618 0.289605 0.289611 0.289598 0.289623 0.289606 0.289594 0.289609 0.289597 0.289625 0.289604 0.289596 0.28959 0.289607 0.289648 0.289613 0.2896 0.289623 0.2896 0.289609 0.289617 0.289591 0.289636 0.289605 0.28961 0.289629 0.289611 0.2896 0.289626 0.289609 0.289624 0.289622 0.289607 0.289615 0.28961 0.289616 0.289618 0.289622 0.289599 0.289598 0.289611 0.289598 0.289615 0.289638 0.289591 0.289614 0.289611 0.28963 0.289613 0.289596 0.289603 0.289627 0.289616 0.289604 0.28961 0.289598 0.289616 0.289627 0.289613 0.289616 0.289607 0.289586 0.289619 0.289599 0.289633 0.289618 0.289657 0.289626 0.289585 0.289609 0.289614 0.289596 0.289616 0.289626 0.289621 0.289623 0.289596 0.289596 0.289594 0.289605 0.28961 0.289635 0.289626 0.289627 0.289591 0.289587 0.289584 0.289612 0.289636 0.289659 0.278596 0.273692 0.271906 0.270554 0.269206 0.268077 0.26713 0.265512 0.263214 0.261164 0.259714 0.258468 0.257246 0.256309 0.255603 0.254982 0.254404 0.253825 0.253308 0.252848 0.252393 0.251948 0.251497 0.251054 0.250608 0.250232 0.249883 0.249531 0.24918 0.248835 0.248489 0.248146 0.247816 0.247543 0.247276 0.247005 0.246736 0.246491 0.246206 0.245949 0.245701 0.245504 0.245317 0.245134 0.244961 0.244784 0.244608 0.244429 0.244253 0.244083 0.243948 0.243824 0.2437 0.243577 0.24345 0.243328 0.243204 0.243077 0.242956 0.242862 0.242785 0.242709 0.242636 0.242557 0.242483 0.242406 0.242333 0.242256 0.242189 0.24216 0.242131 0.242104 0.242073 0.242048 0.242019 0.241991 0.241962 0.241934 0.24194 0.241958 0.241979 0.242002 0.242018 0.242039 0.242056 0.242078 0.242097 0.24214 0.242206 0.24228 0.242351 0.242417 0.242492 0.242559 0.24263 0.242701 0.242799 0.242921 0.243048 0.243176 0.2433 0.243425 0.243551 0.243677 0.243811 0.24399 0.244179 0.244368 0.24456 0.244755 0.244943 0.245134 0.245344 0.245611 0.245905 0.246213 0.246523 0.246845 0.247166 0.247497 0.247918 0.248368 0.248808 0.249259 0.249707 0.250204 0.250821 0.251447 0.252081 0.252722 0.253475 0.254421 0.255408 0.259552 0.286764 0.289605 0.289599 0.289615 0.289626 0.28962 0.289604 0.289612 0.289598 0.289601 0.289642 0.28962 0.289605 0.289627 0.28962 0.2896 0.289594 0.289612 0.289603 0.289592 0.289601 0.289604 0.289622 0.289623 0.289622 0.289647 0.28962 0.289593 0.28962 0.289619 0.289598 0.289609 0.289615 0.289618 0.289598 0.28959 0.289586 0.289595 0.28961 0.289611 0.289619 0.2896 0.289627 0.289604 0.289598 0.289602 0.289617 0.289605 0.289622 0.289621 0.289622 0.289605 0.289606 0.289636 0.289611 0.289633 0.289599 0.289598 0.289639 0.289615 0.289589 0.289623 0.289592 0.289608 0.289627 0.289596 0.289632 0.289612 0.289619 0.289622 0.289613 0.289616 0.289605 0.289618 0.289619 0.28961 0.289588 0.289611 0.289634 0.289638 0.289576 0.289605 0.289625 0.289626 0.289624 0.289612 0.289621 0.289631 0.289608 0.289605 0.289611 0.289593 0.289615 0.289601 0.289629 0.289621 0.28959 0.289623 0.289602 0.289587 0.28961 0.289627 0.289633 0.289627 0.289622 0.289626 0.289578 0.289608 0.289608 0.289594 0.289627 0.289625 0.289626 0.289612 0.289612 0.289619 0.289625 0.289596 0.289621 0.289598 0.289607 0.289621 0.28962 0.289598 0.289609 0.289624 0.28962 0.289599 0.28962 0.289603 0.289616 0.289607 0.289606 0.289584 0.289606 0.289614 0.289595 0.289608 0.289619 0.28962 0.289571 0.289601 0.289595 0.289607 0.289634 0.289612 0.289615 0.289611 0.289594 0.289622 0.262443 0.134718 0.015159 0 0 0 0 0 0 0 0 0 0 0 0 0 0 0 0 0
0.287592 0.287589 0.287582 0.287584 0.287592 0.287568 0.287567 0.287594 0.287585 0.287592 0.28759 0.287567 0.287595 0.287575 0.287584 0.287587 0.287564 0.28758 0.287604 0.28758 0.287589 0.287568 0.28757 0.287583 0.287588 0.287576 0.287593 0.28761 0.287559 0.287581 0.287569 0.287586 0.28757 0.287587 0.287576 0.287591 0.287587 0.287569 0.28758 0.28758 0.287564 0.287596 0.287599 0.287569 0.287587 0.287584 0.28759 0.287592 0.287576 0.287588 0.287575 0.287577 0.287569 0.287578 0.287608 0.287587 0.28756 0.287569 0.28758 0.287578 0.287583 0.287585 0.287594 0.287591 0.28761 0.287573 0.287565 0.287579 0.287561 0.287597 0.287574 0.287579 0.287566 0.287587 0.2876 0.287583 0.28756 0.287586 0.287574 0.287563 0.287573 0.287595 0.287577 0.287594 0.287586 0.287575 0.287564 0.287579 0.287573 0.287581 0.287577 0.287573 0.287575 0.287607 0.287587 0.287565 0.287585 0.287584 0.287588 0.287591 0.287595 0.287577 0.287577 0.28756 0.287579 0.287579 0.287583 0.287575 0.287599 0.287571 0.287567 0.287564 0.287586 0.287581 0.287576 0.287566 0.287568 0.28759 0.287568 0.287568 0.287586 0.287587 0.287592 0.287569 0.287575 0.287613 0.28756 0.287592 0.287578 0.287591 0.287598 0.287566 0.28759 0.272241 0.224569 0.223976 0.223618 0.223382 0.22315 0.223042 0.22317 0.223324 0.246648 0.287584 0.287574 0.287589 0.287568 0.287589 0.287591 0.287582 0.287565 0.287583 0.287571 0.287589 0.287585 0.287583 0.28756 0.249455 0.240247 0.239033 0.238106 0.237302 0.236831 0.236387 0.235947 0.235582 0.235268 0.234965 0.234659 0.234405 0.23426 0.234123 0.233982 0.233842 0.233704 0.23361 0.233534 0.233455 0.233377 0.2333 0.233232 0.233223 0.233224 0.233224 0.233224 0.233224 0.233242 0.233299 0.23337 0.233441 0.233513 0.233583 0.233657 0.233775 0.233917 0.234061 0.234202 0.234344 0.234487 0.234668 0.234884 0.235103 0.235321 0.235537 0.235758 0.236024 0.236334 0.236641 0.236946 0.237254 0.237591 0.237998 0.238418 0.238827 0.239246 0.239732 0.240301 0.240869 0.241448 0.242134 0.242933 0.243751 0.244808 0.246069 0.249271 0.287582 0.287575 0.287584 0.28759 0.287547 0.287588 0.28759 0.287567 0.287604 0.287573 0.287577 0.287582 0.287575 0.287572 0.287577 0.287585 0.287565 0.287572 0.287596 0.287585 0.287581 0.28759 0.287584 0.287547 0.28758 0.287555 0.287572 0.287591 0.287596 0.287568 0.287572 0.287572 0.287558 0.28756 0.287583 0.287564 0.287585 0.28759 0.287578 0.287592 0.287569 0.287578 0.28757 0.287594 0.287573 0.287586 0.287579 0.287596 0.287572 0.287577 0.287586 0.287582 0.287589 0.287586 0.287599 0.287584 0.287578 0.287602 0.287595 0.287564 0.287607 0.287559 0.287592 0.287595 0.28758 0.287577 0.287579 0.287589 0.28759 0.287596 0.287565 0.287585 0.287577 0.287573 0.287576 0.287588 0.287569 0.287598 0.287576 0.287563 0.287598 0.287575 0.287593 0.287582 0.287593 0.287564 0.287564 0.287572 0.287589 0.287577 0.287595 0.287575 0.287556 0.287596 0.287575 0.287581 0.287578 0.287584 0.287596 0.287586 0.287581 0.287601 0.287599 0.287596 0.287566 0.287568 0.287579 0.287598 0.287582 0.287575 0.287601 0.277198 0.272148 0.27077 0.269441 0.268248 0.267264 0.266303 0.265385 0.264363 0.262737 0.260854 0.259526 0.258264 0.257086 0.256159 0.255312 0.254499 0.253801 0.253247 0.252796 0.25234 0.251892 0.251448 0.250998 0.250562 0.250185 0.249832 0.249486 0.249134 0.248791 0.248444 0.248092 0.24777 0.247498 0.247228 0.246958 0.246692 0.246427 0.246159 0.245892 0.245634 0.245424 0.245224 0.245024 0.244822 0.244624 0.244425 0.244235 0.24405 0.243889 0.243749 0.243598 0.24347 0.243345 0.243224 0.243101 0.242977 0.242848 0.242729 0.242634 0.242557 0.242484 0.242407 0.242332 0.242256 0.24218 0.242106 0.242032 0.241964 0.241933 0.241905 0.241878 0.24185 0.241821 0.241794 0.241768 0.241735 0.24171 0.241712 0.24173 0.24175 0.24177 0.241791 0.241808 0.24183 0.24185 0.241868 0.241901 0.24197 0.24204 0.24211 0.24218 0.24225 0.242321 0.242392 0.242459 0.242545 0.242667 0.242797 0.242924 0.243047 0.243175 0.243299 0.243432 0.243557 0.243728 0.243933 0.244138 0.244351 0.244565 0.244785 0.245007 0.245232 0.245522 0.245836 0.246153 0.246471 0.24679 0.247106 0.247437 0.247857 0.248303 0.248754 0.2492 0.249648 0.250123 0.250736 0.25137 0.252008 0.252649 0.253407 0.254688 0.257462 0.265558 0.274746 0.287448 0.287578 0.28757 0.287597 0.287569 0.287562 0.287582 0.287568 0.287595 0.287576 0.287582 0.287589 0.287578 0.287579 0.287565 0.287606 0.287606 0.287588 0.287589 0.287573 0.287585 0.287589 0.287589 0.287583 0.287559 0.287583 0.287587 0.287593 0.287597 0.287587 0.287577 0.287564 0.287593 0.287586 0.287597 0.28759 0.287588 0.28758 0.287557 0.287566 0.287585 0.28758 0.287583 0.287579 0.287572 0.287568 0.287598 0.287612 0.287585 0.287568 0.287597 0.28757 0.287588 0.287563 0.287556 0.287569 0.28759 0.287585 0.287586 0.287581 0.287579 0.287578 0.287578 0.287576 0.287573 0.287598 0.287593 0.287575 0.287566 0.28757 0.287552 0.287569 0.28759 0.287596 0.287595 0.287581 0.287574 0.287598 0.287565 0.28758 0.287588 0.287564 0.287605 0.287576 0.28759 0.287564 0.287576 0.287562 0.287572 0.287584 0.287579 0.287598 0.287579 0.287573 0.287591 0.287583 0.287582 0.287575 0.287564 0.287562 0.287604 0.287585 0.287563 0.287581 0.287579 0.287583 0.287573 0.287594 0.287573 0.287569 0.287572 0.287601 0.287575 0.287576 0.287573 0.28758 0.287583 0.287569 0.287574 0.28756 0.287585 0.287575 0.287573 0.28757 0.287583 0.287559 0.287601 0.287593 0.287574 0.287589 0.287574 0.287571 0.287575 0.287563 0.287579 0.28758 0.287584 0.287574 0.287574 0.2876 0.287588 0.28758 0.287563 0.287587 0.287588 0.287581 0.287578 0.28758 0.287591 0.287577 0.287583 0.268407 0.151758 0.0255224 0 0 0 0 0 0 0 0 0 0 0 0 0 0 0
0.285581 0.285569 0.285588 0.285572 0.285541 0.285555 0.285588 0.28559 0.2856 0.285595 0.285569 0.285583 0.28556 0.285574 0.285582 0.285577 0.285569 0.285577 0.28558 0.28557 0.285588 0.285591 0.285587 0.285587 0.285577 0.285589 0.285564 0.285575 0.285571 0.285547 0.285585 0.285574 0.285578 0.285566 0.285577 0.28558 0.285559 0.285577 0.285591 0.285565 0.285581 0.285569 0.285594 0.28558 0.285586 0.285567 0.285567 0.285578 0.285558 0.28556 0.285574 0.285573 0.285581 0.28557 0.285593 0.285585 0.285596 0.285558 0.285579 0.285558 0.285558 0.28558 0.285595 0.285575 0.285588 0.28558 0.285557 0.285546 0.285586 0.285592 0.285578 0.285569 0.285586 0.285587 0.285577 0.285542 0.285567 0.28558 0.285575 0.285572 0.285582 0.285571 0.285572 0.285565 0.285597 0.28556 0.285575 0.285565 0.285597 0.285567 0.285568 0.28558 0.285587 0.285567 0.28557 0.285561 0.285583 0.285588 0.285593 0.285566 0.285581 0.28556 0.285573 0.285555 0.285544 0.285587 0.28558 0.285568 0.285572 0.285589 0.285565 0.285561 0.285587 0.285578 0.285586 0.285565 0.28555 0.285576 0.285573 0.285592 0.285574 0.285572 0.285588 0.285572 0.285579 0.285585 0.28559 0.285593 0.285571 0.285578 0.285586 0.28556 0.28557 0.280385 0.224716 0.224088 0.223666 0.223419 0.223173 0.223054 0.223181 0.223323 0.239057 0.285577 0.285576 0.285559 0.285567 0.285589 0.285577 0.285574 0.285588 0.285599 0.285586 0.285574 0.285577 0.285583 0.285565 0.248863 0.240245 0.239022 0.238098 0.237298 0.23684 0.236394 0.235946 0.23558 0.235273 0.234963 0.234658 0.234406 0.234262 0.234124 0.233984 0.233843 0.233704 0.23361 0.233533 0.233457 0.233377 0.233301 0.233233 0.233223 0.233224 0.233224 0.233224 0.233224 0.233242 0.2333 0.233369 0.233441 0.233514 0.233584 0.233656 0.233774 0.233918 0.234059 0.234202 0.234346 0.234486 0.234666 0.234884 0.235106 0.235321 0.235539 0.23576 0.236027 0.236332 0.236638 0.236946 0.237256 0.237588 0.237996 0.238413 0.23883 0.23924 0.239727 0.240306 0.240874 0.241449 0.242144 0.242934 0.243761 0.2448 0.246072 0.24913 0.285587 0.285574 0.285569 0.285585 0.285573 0.285586 0.285599 0.28559 0.28557 0.28558 0.285582 0.285575 0.285585 0.285587 0.285583 0.285561 0.285577 0.285583 0.285563 0.285565 0.28557 0.285585 0.285596 0.285584 0.285585 0.285595 0.28557 0.285573 0.285579 0.285569 0.285586 0.285576 0.285574 0.285566 0.285582 0.28557 0.285584 0.285585 0.285586 0.285555 0.285559 0.285573 0.285585 0.285571 0.285553 0.285575 0.285588 0.285573 0.285579 0.285574 0.285579 0.285569 0.285579 0.285579 0.285574 0.285586 0.28559 0.285567 0.285583 0.285586 0.285602 0.285571 0.285586 0.285577 0.285599 0.285572 0.28558 0.285596 0.285577 0.28556 0.285556 0.285577 0.285564 0.285573 0.28559 0.285563 0.285582 0.285592 0.285573 0.28558 0.285581 0.285567 0.285576 0.285573 0.285565 0.28558 0.285582 0.285566 0.285578 0.285571 0.285575 0.28559 0.285595 0.28558 0.28558 0.285586 0.285574 0.285571 0.285589 0.285557 0.28559 0.285597 0.285574 0.285568 0.28558 0.285584 0.285577 0.28557 0.285584 0.285577 0.285577 0.276786 0.271006 0.269661 0.268412 0.267409 0.266458 0.265497 0.264628 0.263904 0.263163 0.262074 0.260599 0.259341 0.258065 0.256964 0.2561 0.255235 0.254354 0.253544 0.25292 0.252365 0.251853 0.251387 0.250943 0.25051 0.250138 0.249787 0.249435 0.249085 0.248743 0.248391 0.248046 0.247726 0.247455 0.247189 0.246916 0.24665 0.246382 0.246115 0.245852 0.245594 0.245381 0.24518 0.244979 0.244781 0.244581 0.244383 0.244183 0.243988 0.243796 0.243649 0.24351 0.243366 0.243228 0.243088 0.242949 0.242833 0.242675 0.242542 0.242444 0.242362 0.242283 0.242201 0.242123 0.242045 0.241964 0.241889 0.241809 0.241742 0.241713 0.241682 0.241654 0.241626 0.241598 0.241571 0.24154 0.241513 0.241504 0.241483 0.241502 0.241521 0.241541 0.24156 0.24158 0.2416 0.241616 0.241641 0.241667 0.241738 0.241808 0.24188 0.241949 0.242025 0.242099 0.242173 0.242247 0.242329 0.242461 0.242597 0.242736 0.242876 0.243019 0.243164 0.243307 0.243453 0.243636 0.243853 0.244074 0.244298 0.244517 0.244737 0.244958 0.245185 0.245472 0.245783 0.246101 0.246417 0.246735 0.247053 0.247382 0.247794 0.248241 0.248686 0.249142 0.249582 0.250059 0.250658 0.251293 0.251968 0.252808 0.254373 0.256801 0.262259 0.264751 0.267045 0.277021 0.285576 0.28559 0.285539 0.285571 0.285576 0.285561 0.285584 0.285577 0.285557 0.28558 0.285559 0.285613 0.285591 0.285557 0.285585 0.285573 0.285569 0.285588 0.285588 0.285582 0.285583 0.285569 0.285574 0.285581 0.285579 0.285554 0.285575 0.285566 0.285562 0.285587 0.285567 0.285574 0.285563 0.285551 0.285552 0.285583 0.285553 0.285582 0.285595 0.285565 0.285588 0.285562 0.285619 0.285581 0.285566 0.28556 0.285563 0.285568 0.285574 0.285573 0.285588 0.285558 0.285587 0.28557 0.285553 0.285582 0.285559 0.285584 0.285578 0.285586 0.285582 0.285572 0.285577 0.285563 0.285566 0.285577 0.285551 0.285583 0.28557 0.285561 0.285585 0.285584 0.285593 0.285573 0.285562 0.285569 0.285577 0.28558 0.285581 0.285577 0.28556 0.285577 0.285585 0.285576 0.285582 0.285582 0.28558 0.285584 0.285556 0.285567 0.285581 0.285566 0.285599 0.285581 0.285557 0.285594 0.285574 0.285591 0.285589 0.285574 0.285589 0.285586 0.28557 0.285554 0.285573 0.285592 0.285579 0.285556 0.285564 0.285592 0.28558 0.285592 0.285548 0.285578 0.28559 0.285576 0.285597 0.285584 0.285593 0.285557 0.285581 0.285567 0.28557 0.285564 0.285553 0.285574 0.285565 0.285572 0.28558 0.285564 0.285571 0.285564 0.285565 0.285614 0.285578 0.285601 0.285589 0.285553 0.2856 0.285585 0.285591 0.285569 0.285565 0.285573 0.285576 0.28558 0.28557 0.285582 0.285561 0.285583 0.285578 0.285585 0.276266 0.166976 0.0341739 0 0 0 0 0 0 0 0 0 0 0 0 0
0.283589 0.283578 0.283587 0.28361 0.283609 0.283595 0.283594 0.283591 0.283588 0.283576 0.283622 0.283601 0.283583 0.283585 0.283596 0.283613 0.283612 0.2836 0.283569 0.283613 0.283606 0.283612 0.283598 0.283598 0.283595 0.283594 0.283594 0.283596 0.283596 0.283613 0.283605 0.283594 0.283584 0.283615 0.283624 0.283609 0.283631 0.283581 0.283599 0.283584 0.283605 0.283594 0.283599 0.28361 0.283605 0.283604 0.283584 0.283597 0.283602 0.283596 0.283574 0.283582 0.28359 0.283605 0.283604 0.283604 0.283605 0.283614 0.283599 0.283589 0.283586 0.283596 0.283616 0.283628 0.283607 0.283582 0.283591 0.283612 0.283604 0.283612 0.283607 0.283596 0.283623 0.28362 0.283618 0.283592 0.283628 0.28359 0.283583 0.283617 0.283581 0.283585 0.283592 0.283589 0.283594 0.283609 0.283607 0.283589 0.283599 0.283614 0.283597 0.283606 0.283599 0.283577 0.283592 0.28359 0.283611 0.283599 0.283634 0.2836 0.283601 0.283586 0.283613 0.283619 0.283615 0.283603 0.283608 0.283609 0.283608 0.283591 0.283593 0.283598 0.283591 0.283598 0.283594 0.283602 0.283588 0.283611 0.283603 0.283609 0.283607 0.28361 0.283586 0.283605 0.28363 0.283585 0.283589 0.283613 0.283609 0.283604 0.283608 0.2836 0.283589 0.283582 0.229007 0.224247 0.223766 0.22352 0.223266 0.223102 0.223213 0.223347 0.229723 0.283597 0.283612 0.283612 0.283619 0.283597 0.283596 0.283601 0.283584 0.283574 0.283603 0.283584 0.283623 0.283622 0.283591 0.248439 0.240258 0.239043 0.238115 0.237304 0.236834 0.236396 0.235951 0.235584 0.235275 0.234966 0.234665 0.234404 0.23426 0.234127 0.233984 0.233843 0.233705 0.233612 0.233533 0.233455 0.233376 0.233299 0.233232 0.233223 0.233224 0.233224 0.233224 0.233224 0.233241 0.233299 0.23337 0.233441 0.233513 0.233584 0.233657 0.233775 0.233917 0.23406 0.234202 0.234346 0.234489 0.234668 0.234887 0.235103 0.235322 0.235539 0.235754 0.236028 0.236336 0.236636 0.236947 0.237254 0.237587 0.238 0.238409 0.238831 0.23925 0.239733 0.24031 0.240871 0.241443 0.24214 0.242939 0.243751 0.244793 0.246069 0.249366 0.28362 0.283591 0.283613 0.283601 0.283597 0.283616 0.283622 0.283604 0.283599 0.283603 0.283597 0.283596 0.283619 0.283603 0.283616 0.283598 0.28358 0.283602 0.283595 0.283609 0.283577 0.283591 0.283599 0.283608 0.283589 0.283605 0.283603 0.283613 0.283591 0.283597 0.283617 0.283595 0.28361 0.283599 0.283619 0.283604 0.28362 0.2836 0.28361 0.283575 0.283579 0.283612 0.283596 0.283626 0.283598 0.283618 0.283596 0.2836 0.283595 0.283584 0.28361 0.283584 0.283596 0.2836 0.283609 0.283602 0.283608 0.283629 0.28359 0.283604 0.283597 0.283596 0.283606 0.283613 0.283611 0.283602 0.283594 0.283603 0.283598 0.283598 0.283595 0.2836 0.283608 0.283607 0.283584 0.283585 0.283595 0.283594 0.283606 0.283604 0.283601 0.283614 0.283598 0.283576 0.283611 0.283585 0.283595 0.283595 0.283591 0.283599 0.283605 0.283615 0.283604 0.283593 0.283618 0.283576 0.283583 0.283613 0.283591 0.283602 0.283615 0.28359 0.283598 0.283622 0.283595 0.283584 0.283612 0.283603 0.283617 0.283594 0.283614 0.278936 0.26987 0.268598 0.267563 0.266604 0.26566 0.264748 0.263977 0.263245 0.262554 0.261815 0.261102 0.260253 0.25912 0.257876 0.256894 0.256006 0.25514 0.254283 0.25353 0.252888 0.25226 0.251628 0.251038 0.250506 0.2501 0.249738 0.249391 0.249041 0.248694 0.24835 0.248001 0.247683 0.24741 0.247144 0.246874 0.246606 0.246339 0.246077 0.245808 0.24555 0.245344 0.245143 0.244939 0.24474 0.244541 0.244341 0.244145 0.243945 0.243758 0.24361 0.24347 0.243329 0.24319 0.243051 0.242911 0.24277 0.242632 0.242494 0.242393 0.242308 0.242222 0.242137 0.242052 0.241967 0.241883 0.241797 0.241713 0.241639 0.241604 0.241572 0.241539 0.241508 0.241476 0.241444 0.241413 0.24138 0.241349 0.241345 0.241366 0.241388 0.24141 0.241433 0.241455 0.241476 0.241498 0.24152 0.241551 0.241625 0.241704 0.241782 0.241864 0.241943 0.242021 0.2421 0.242181 0.242267 0.2424 0.242545 0.24269 0.242833 0.24298 0.243119 0.243267 0.243411 0.243589 0.243811 0.244029 0.244247 0.244467 0.244689 0.244913 0.245134 0.245415 0.245736 0.246049 0.246365 0.246678 0.247006 0.247326 0.247736 0.248181 0.248632 0.249075 0.249526 0.249995 0.250712 0.25166 0.252739 0.254229 0.256399 0.260067 0.262028 0.263369 0.265019 0.267686 0.280899 0.28361 0.283579 0.283592 0.283608 0.28359 0.283598 0.283593 0.283603 0.283621 0.283589 0.283608 0.283618 0.283581 0.283602 0.283597 0.283601 0.283614 0.283603 0.283602 0.283587 0.283602 0.283591 0.283585 0.283583 0.283592 0.283619 0.283614 0.283613 0.283599 0.283605 0.283623 0.283609 0.283614 0.283615 0.283587 0.283621 0.283601 0.283586 0.283607 0.283607 0.283609 0.283594 0.283607 0.283588 0.283621 0.283617 0.283608 0.2836 0.283592 0.283599 0.283602 0.283569 0.283606 0.283606 0.283619 0.283567 0.283595 0.283581 0.283599 0.283613 0.283592 0.283613 0.283588 0.283603 0.283604 0.283609 0.283598 0.283603 0.283595 0.283623 0.283608 0.283605 0.283605 0.283575 0.283603 0.283614 0.283604 0.28361 0.283605 0.283595 0.283603 0.28357 0.283589 0.283612 0.283591 0.283597 0.283603 0.283591 0.283612 0.283589 0.283588 0.283593 0.283592 0.283614 0.283615 0.283606 0.283617 0.283605 0.283592 0.283583 0.283598 0.283608 0.283611 0.283613 0.283602 0.283619 0.283601 0.283592 0.283602 0.283585 0.283605 0.283588 0.283608 0.283626 0.283601 0.283591 0.283598 0.283591 0.283594 0.283576 0.283563 0.283599 0.283596 0.283609 0.28359 0.283593 0.283587 0.283593 0.283596 0.28361 0.283604 0.283572 0.283593 0.283599 0.283601 0.283575 0.283574 0.2836 0.283594 0.283593 0.283592 0.283613 0.283606 0.283596 0.283599 0.283596 0.283599 0.28361 0.283589 0.283597 0.283608 0.2836 0.283618 0.279071 0.186112 0.0495055 0 0 0 0 0 0 0 0 0 0 0
0.281644 0.281643 0.281654 0.281646 0.281646 0.281664 0.281654 0.28164 0.281661 0.281641 0.281632 0.281648 0.281662 0.281651 0.281654 0.281664 0.281634 0.281652 0.281626 0.28164 0.281662 0.281651 0.28166 0.281661 0.281628 0.281658 0.281659 0.281656 0.281654 0.281635 0.281656 0.281652 0.281654 0.281658 0.28165 0.281653 0.281665 0.281663 0.281655 0.281651 0.281636 0.281658 0.28164 0.281643 0.281654 0.281642 0.281656 0.281651 0.28162 0.281647 0.28165 0.281661 0.281648 0.281667 0.281663 0.28166 0.281659 0.281643 0.281633 0.281641 0.281657 0.281675 0.281635 0.281653 0.281666 0.281669 0.28166 0.281643 0.281645 0.281648 0.281636 0.281629 0.281654 0.281647 0.281648 0.281647 0.281639 0.281668 0.281664 0.281677 0.281634 0.281644 0.281651 0.281666 0.281639 0.28164 0.281648 0.281654 0.281638 0.281645 0.281648 0.281656 0.281643 0.281641 0.281654 0.281635 0.28167 0.281646 0.281635 0.281659 0.281647 0.281664 0.281654 0.281637 0.281666 0.281638 0.281632 0.281662 0.281661 0.281659 0.281646 0.281643 0.281653 0.28164 0.281643 0.28164 0.281653 0.281644 0.281659 0.281661 0.281646 0.28165 0.281682 0.28165 0.281644 0.281657 0.281655 0.281642 0.281662 0.281666 0.281637 0.281642 0.281639 0.281649 0.239079 0.224399 0.223882 0.223616 0.223364 0.223167 0.223254 0.223384 0.223895 0.27784 0.281636 0.281654 0.281668 0.281667 0.281653 0.281643 0.281651 0.28166 0.281655 0.281635 0.281644 0.281639 0.281627 0.248938 0.240259 0.239019 0.238113 0.237306 0.236837 0.236388 0.235955 0.235589 0.235278 0.234966 0.234665 0.234406 0.234263 0.234124 0.233985 0.233842 0.233704 0.233612 0.233533 0.233455 0.233377 0.2333 0.233232 0.233223 0.233224 0.233224 0.233224 0.233224 0.233242 0.233299 0.23337 0.233441 0.233513 0.233584 0.233657 0.233773 0.233915 0.23406 0.234203 0.234344 0.234489 0.234666 0.234884 0.235101 0.23532 0.235539 0.235758 0.236029 0.236333 0.23664 0.236945 0.237255 0.237585 0.238001 0.238413 0.238824 0.239246 0.239735 0.240305 0.240867 0.241436 0.242136 0.242941 0.243757 0.244813 0.246051 0.249121 0.281657 0.281648 0.281663 0.281633 0.281601 0.28167 0.281647 0.281645 0.281658 0.281646 0.281653 0.281652 0.281698 0.281654 0.281656 0.28164 0.281658 0.28163 0.281661 0.281648 0.28165 0.281647 0.281653 0.281672 0.281661 0.281652 0.28163 0.281666 0.281642 0.281632 0.281654 0.28166 0.281636 0.281643 0.281653 0.281655 0.281642 0.281664 0.281647 0.28164 0.281638 0.281671 0.281665 0.281659 0.281631 0.28167 0.281642 0.281641 0.281657 0.281683 0.281636 0.281654 0.281659 0.281634 0.28167 0.281625 0.281645 0.281653 0.281638 0.281649 0.281642 0.28166 0.281649 0.281656 0.281652 0.281637 0.28165 0.281645 0.281651 0.281656 0.281663 0.281666 0.281631 0.281639 0.281644 0.281672 0.281634 0.281651 0.281665 0.281651 0.281643 0.281643 0.28165 0.281643 0.281658 0.281668 0.281672 0.28164 0.281637 0.281646 0.281674 0.281651 0.281675 0.281668 0.281657 0.28165 0.28166 0.281638 0.281649 0.281649 0.281664 0.281658 0.281649 0.281657 0.281658 0.28163 0.281662 0.281668 0.281656 0.281665 0.281626 0.280918 0.269501 0.26772 0.266752 0.265806 0.264857 0.264062 0.263331 0.262629 0.261904 0.261202 0.260605 0.260042 0.259471 0.258717 0.257716 0.256823 0.255922 0.255072 0.254226 0.253529 0.252896 0.252259 0.251623 0.251009 0.250442 0.249975 0.249509 0.249081 0.248681 0.248301 0.247957 0.247637 0.247366 0.2471 0.246831 0.246562 0.246298 0.246031 0.245767 0.245507 0.245303 0.245102 0.244899 0.244701 0.244501 0.2443 0.244104 0.243907 0.243718 0.243572 0.243432 0.243293 0.243151 0.243011 0.242871 0.242733 0.242592 0.242456 0.242354 0.242269 0.242185 0.2421 0.242013 0.241929 0.241845 0.24176 0.241675 0.241602 0.241566 0.241535 0.241503 0.241471 0.241439 0.241407 0.241375 0.241342 0.241312 0.241307 0.241328 0.241351 0.241373 0.241394 0.241415 0.241439 0.24146 0.241482 0.241513 0.241585 0.241664 0.241744 0.241822 0.241902 0.241983 0.242061 0.242141 0.242227 0.242359 0.242503 0.242647 0.242789 0.242936 0.243079 0.243222 0.243368 0.243542 0.243759 0.243981 0.244202 0.244422 0.244645 0.244863 0.245088 0.245363 0.245678 0.245996 0.246309 0.246632 0.24695 0.24727 0.247676 0.248119 0.248607 0.249147 0.249759 0.250599 0.251665 0.252769 0.254101 0.256099 0.258629 0.25998 0.260909 0.262203 0.26354 0.265321 0.270556 0.281573 0.281631 0.281666 0.281661 0.281664 0.281669 0.281628 0.281644 0.281638 0.281664 0.281642 0.281662 0.281627 0.281638 0.281671 0.281638 0.281658 0.281651 0.281637 0.281653 0.281658 0.281634 0.281647 0.281639 0.281666 0.281662 0.281658 0.281653 0.281641 0.281669 0.28166 0.28166 0.281675 0.281658 0.281659 0.28165 0.281651 0.281641 0.281647 0.281654 0.281657 0.281635 0.281635 0.281634 0.281628 0.281632 0.28165 0.281625 0.28165 0.281658 0.28165 0.281644 0.281635 0.281642 0.281649 0.281655 0.281659 0.281642 0.281651 0.281631 0.281663 0.281639 0.281657 0.28166 0.28164 0.281659 0.281664 0.28166 0.281659 0.281659 0.28166 0.281674 0.281638 0.281648 0.281644 0.28166 0.281644 0.281634 0.28165 0.281642 0.281655 0.281644 0.28166 0.281666 0.281632 0.28166 0.281656 0.281619 0.281669 0.281647 0.28164 0.28165 0.28163 0.281684 0.281653 0.281623 0.281653 0.281639 0.281639 0.281663 0.28165 0.281628 0.281672 0.28164 0.281655 0.281655 0.281667 0.281657 0.281645 0.281626 0.281668 0.281656 0.281673 0.281643 0.28165 0.281671 0.281637 0.28166 0.281671 0.281667 0.281643 0.281665 0.281653 0.281642 0.281629 0.281622 0.281652 0.281653 0.281655 0.281641 0.28164 0.281649 0.28162 0.281635 0.281655 0.281649 0.281666 0.281657 0.281619 0.281657 0.281647 0.281653 0.281653 0.281627 0.281645 0.281656 0.281641 0.281648 0.281678 0.28165 0.281635 0.281659 0.281663 0.281648 0.281636 0.280907 0.19317 0.0678546 0.000140344 0 0 0 0 0 0 0 0
0.279713 0.279737 0.279729 0.279706 0.279734 0.279723 0.279733 0.279711 0.279729 0.279739 0.279711 0.279721 0.279737 0.279723 0.279726 0.279738 0.279742 0.279711 0.279732 0.27973 0.279724 0.279748 0.279745 0.279733 0.279728 0.279722 0.279727 0.279729 0.279744 0.279729 0.279728 0.27975 0.279738 0.279734 0.279712 0.279728 0.279726 0.279727 0.279742 0.279748 0.279732 0.279745 0.279744 0.279732 0.279696 0.279724 0.279734 0.279742 0.279724 0.27973 0.279718 0.279705 0.279743 0.279732 0.279714 0.279738 0.279707 0.279734 0.279742 0.279733 0.279707 0.279736 0.279708 0.279754 0.279734 0.279701 0.279739 0.27974 0.279719 0.279745 0.279707 0.27973 0.279712 0.279744 0.279736 0.279713 0.279744 0.279723 0.279733 0.27975 0.279732 0.27973 0.279728 0.279701 0.279732 0.279706 0.279733 0.279719 0.279722 0.279713 0.279713 0.279728 0.279718 0.279713 0.279709 0.279716 0.279738 0.279734 0.279738 0.279734 0.279721 0.279706 0.279747 0.27972 0.27974 0.279723 0.279732 0.279759 0.279727 0.27973 0.279742 0.279724 0.279732 0.279728 0.279701 0.279725 0.279719 0.279731 0.279727 0.279719 0.279729 0.279718 0.279734 0.279722 0.279723 0.279722 0.279736 0.279705 0.279736 0.279711 0.27972 0.279749 0.279739 0.279726 0.24613 0.224567 0.224002 0.223718 0.223467 0.223241 0.223288 0.223421 0.223781 0.267748 0.279713 0.279727 0.279724 0.279712 0.279726 0.27973 0.279728 0.279735 0.279724 0.27972 0.279739 0.279717 0.279722 0.248501 0.240271 0.239033 0.238107 0.237309 0.236839 0.236397 0.235958 0.235593 0.235275 0.234966 0.234665 0.234408 0.234264 0.234125 0.233983 0.233843 0.233703 0.233612 0.233534 0.233455 0.233377 0.2333 0.233232 0.233223 0.233224 0.233224 0.233224 0.233224 0.233241 0.233299 0.23337 0.233442 0.233513 0.233584 0.233658 0.233775 0.233917 0.234059 0.234202 0.234344 0.234487 0.234669 0.234886 0.235103 0.235316 0.235537 0.235759 0.236029 0.236334 0.23664 0.236945 0.237252 0.237584 0.237996 0.23841 0.23883 0.239251 0.239725 0.240307 0.240872 0.241447 0.242139 0.242931 0.243758 0.244807 0.246068 0.249141 0.279712 0.27971 0.279736 0.279726 0.279726 0.279733 0.27973 0.279726 0.279743 0.279728 0.279724 0.279726 0.279726 0.279734 0.279713 0.279713 0.279718 0.279712 0.279761 0.279711 0.279738 0.279723 0.279714 0.279711 0.279692 0.279729 0.279719 0.279756 0.279723 0.279726 0.279736 0.279719 0.27971 0.279739 0.279729 0.279728 0.279737 0.279722 0.279722 0.27974 0.279712 0.279709 0.279737 0.279719 0.279754 0.279725 0.279706 0.279743 0.27973 0.279743 0.279694 0.279724 0.279724 0.279732 0.279713 0.279713 0.279718 0.279726 0.279727 0.279723 0.279735 0.279737 0.279722 0.279746 0.279728 0.279731 0.279742 0.27972 0.279735 0.279729 0.279731 0.27972 0.279724 0.279753 0.27975 0.279714 0.279729 0.279742 0.279719 0.279718 0.279714 0.279724 0.279724 0.279724 0.279746 0.279728 0.279746 0.279744 0.279714 0.279729 0.279719 0.279741 0.279754 0.279721 0.27973 0.279725 0.279727 0.27973 0.27974 0.279714 0.279718 0.279725 0.279719 0.279735 0.279718 0.27973 0.279732 0.279719 0.279735 0.279749 0.279714 0.279731 0.272046 0.267029 0.265947 0.265008 0.264154 0.26343 0.262695 0.262002 0.261268 0.260645 0.260081 0.259503 0.258956 0.258399 0.257845 0.257314 0.256656 0.255857 0.254989 0.254174 0.253551 0.252902 0.252259 0.251645 0.251012 0.250512 0.25004 0.24956 0.249096 0.248624 0.248157 0.247745 0.247408 0.247099 0.246801 0.246523 0.246252 0.245986 0.245719 0.245464 0.24526 0.245061 0.24486 0.244661 0.24446 0.244263 0.244064 0.243865 0.243676 0.243533 0.243393 0.243253 0.243112 0.242973 0.242831 0.242692 0.242554 0.242417 0.242317 0.242232 0.242147 0.242063 0.241978 0.241893 0.241807 0.241723 0.241637 0.241565 0.241529 0.241496 0.241466 0.241434 0.241401 0.24137 0.241337 0.241306 0.241274 0.241268 0.24129 0.241312 0.241334 0.241356 0.241378 0.2414 0.241421 0.241444 0.241474 0.241546 0.241625 0.241703 0.241783 0.241863 0.241941 0.242021 0.242101 0.242187 0.242318 0.242461 0.242603 0.242749 0.242892 0.243037 0.243181 0.243325 0.243496 0.243716 0.243931 0.244152 0.244375 0.244598 0.24482 0.24504 0.245312 0.245631 0.245942 0.246256 0.24658 0.246932 0.247312 0.247862 0.248504 0.249195 0.249876 0.250635 0.251693 0.252801 0.254068 0.25585 0.257324 0.258279 0.259136 0.260015 0.261061 0.262339 0.263698 0.265673 0.27846 0.279708 0.27973 0.279739 0.279712 0.279732 0.279719 0.279721 0.279737 0.279746 0.279738 0.279722 0.27972 0.279722 0.279725 0.279731 0.279701 0.279761 0.27972 0.279723 0.279738 0.279746 0.279716 0.279744 0.279735 0.279715 0.27972 0.279721 0.279734 0.27972 0.279739 0.279702 0.279721 0.279723 0.279718 0.279742 0.279766 0.279722 0.279737 0.279714 0.279707 0.279731 0.27972 0.279746 0.27974 0.279728 0.279711 0.279752 0.279719 0.279733 0.27972 0.279721 0.279743 0.279751 0.279736 0.279727 0.279744 0.279722 0.279707 0.279726 0.279763 0.279728 0.279736 0.279727 0.279727 0.279712 0.279716 0.279723 0.279728 0.279715 0.279716 0.279736 0.279721 0.279729 0.279731 0.279713 0.279723 0.279743 0.279731 0.279726 0.279729 0.279716 0.279736 0.279712 0.279707 0.279717 0.279731 0.279735 0.279717 0.279732 0.279747 0.279733 0.279717 0.279739 0.279727 0.279731 0.279725 0.279744 0.279721 0.279746 0.279712 0.279731 0.27971 0.279715 0.279728 0.279741 0.279706 0.279734 0.279733 0.279719 0.279722 0.279729 0.279734 0.279717 0.279718 0.279759 0.279715 0.279743 0.27974 0.279713 0.279724 0.279741 0.279725 0.279719 0.279719 0.279728 0.279729 0.279725 0.279743 0.279722 0.279727 0.279731 0.279741 0.279723 0.279726 0.279726 0.279739 0.279732 0.279708 0.279719 0.279726 0.27972 0.279745 0.279733 0.279732 0.279725 0.27975 0.279718 0.279756 0.279721 0.279736 0.279734 0.279744 0.27973 0.279734 0.279726 0.279739 0.279717 0.215798 0.0862458 0.00139412 0 0 0 0 0 0
0.277829 0.277839 0.277843 0.277817 0.277813 0.27783 0.277828 0.277836 0.277828 0.277819 0.277844 0.277816 0.277832 0.277811 0.277805 0.277833 0.27783 0.277853 0.277849 0.277835 0.277822 0.277824 0.27783 0.277841 0.277819 0.277842 0.277853 0.277816 0.2778 0.277843 0.277833 0.277828 0.277853 0.27785 0.277839 0.277822 0.277819 0.277819 0.277817 0.277827 0.277848 0.277835 0.277838 0.277826 0.277824 0.277813 0.277825 0.277825 0.27783 0.277826 0.277826 0.277835 0.277829 0.277842 0.277813 0.277819 0.27782 0.277829 0.277828 0.277844 0.277825 0.277825 0.277811 0.277804 0.277849 0.27783 0.27784 0.277839 0.277847 0.277845 0.277834 0.277824 0.277823 0.277821 0.277815 0.277823 0.277817 0.277836 0.277855 0.277823 0.277841 0.277836 0.277834 0.27781 0.277834 0.277844 0.27782 0.277833 0.27785 0.277824 0.277834 0.277828 0.277818 0.277829 0.277822 0.277825 0.277806 0.277843 0.277807 0.277848 0.277836 0.277825 0.27784 0.277831 0.277825 0.277827 0.277824 0.277831 0.277842 0.277837 0.277836 0.27784 0.277812 0.277809 0.277832 0.277807 0.277825 0.277858 0.277824 0.277819 0.277842 0.277814 0.277841 0.277825 0.277855 0.277832 0.277836 0.277837 0.277841 0.277817 0.277832 0.277829 0.277834 0.277836 0.25436 0.224742 0.224139 0.223819 0.223569 0.223325 0.223329 0.22346 0.223723 0.257087 0.277841 0.277831 0.277832 0.277841 0.277817 0.277824 0.277826 0.277843 0.277837 0.277823 0.277831 0.277829 0.277817 0.247715 0.240258 0.239032 0.238118 0.23731 0.236839 0.236396 0.235962 0.235597 0.235281 0.234973 0.234662 0.234407 0.234265 0.234126 0.233983 0.233842 0.233702 0.233612 0.233533 0.233455 0.233377 0.233301 0.233232 0.233223 0.233224 0.233224 0.233224 0.233224 0.233242 0.2333 0.233369 0.233441 0.233512 0.233584 0.233657 0.233776 0.233917 0.234061 0.234202 0.234345 0.234489 0.234664 0.234886 0.235104 0.235321 0.235541 0.235757 0.236029 0.236334 0.236642 0.236947 0.237253 0.23759 0.237998 0.238414 0.238835 0.239248 0.239739 0.240296 0.240872 0.241438 0.242142 0.242941 0.24375 0.244808 0.246048 0.249091 0.277837 0.277852 0.277843 0.277834 0.27784 0.27783 0.27783 0.277822 0.277843 0.277825 0.277819 0.277844 0.27782 0.277836 0.277837 0.277842 0.277838 0.277835 0.277816 0.27784 0.27782 0.2778 0.277839 0.277828 0.277849 0.277854 0.277828 0.277824 0.277819 0.277829 0.277811 0.27782 0.277824 0.277831 0.277847 0.277811 0.277834 0.277837 0.277818 0.277829 0.277826 0.27784 0.277849 0.277832 0.277841 0.277831 0.277844 0.277844 0.277817 0.277825 0.277832 0.277843 0.277831 0.277831 0.277843 0.277835 0.277832 0.277829 0.277832 0.277838 0.277825 0.277831 0.277828 0.277841 0.277829 0.277819 0.277851 0.277833 0.277838 0.277845 0.27784 0.277842 0.277828 0.277814 0.277838 0.277837 0.277843 0.277841 0.277824 0.277847 0.277828 0.277813 0.277845 0.277837 0.277841 0.277843 0.277826 0.277831 0.277823 0.27783 0.277843 0.277838 0.277816 0.277848 0.277801 0.27783 0.277819 0.277827 0.277831 0.277824 0.277837 0.277821 0.277825 0.277838 0.277825 0.277815 0.277829 0.277836 0.277834 0.277825 0.277824 0.277857 0.274643 0.267454 0.26533 0.264242 0.263516 0.26279 0.26208 0.261376 0.260683 0.26011 0.259551 0.258991 0.258433 0.257867 0.257377 0.256927 0.256484 0.256042 0.255501 0.254842 0.25419 0.253551 0.252916 0.252275 0.251637 0.251057 0.250586 0.250104 0.249632 0.249177 0.248702 0.24823 0.24785 0.247484 0.24713 0.246781 0.246437 0.246089 0.245771 0.245472 0.245244 0.245028 0.244821 0.244621 0.24442 0.244221 0.244024 0.243826 0.24364 0.243494 0.243353 0.243216 0.243074 0.242932 0.242797 0.242655 0.242517 0.242378 0.24228 0.242194 0.242109 0.242024 0.24194 0.241854 0.241771 0.241685 0.2416 0.241526 0.241492 0.241459 0.241427 0.241396 0.241364 0.241332 0.2413 0.241268 0.241237 0.24123 0.241253 0.241274 0.241296 0.241318 0.24134 0.241362 0.241384 0.241406 0.241434 0.241506 0.241585 0.241665 0.241744 0.241823 0.241903 0.241982 0.242062 0.242146 0.242273 0.242419 0.242563 0.242705 0.242849 0.242994 0.243139 0.243282 0.243451 0.243667 0.243889 0.244109 0.244328 0.24455 0.24477 0.245 0.245296 0.24567 0.24607 0.246498 0.246947 0.247406 0.247958 0.248624 0.249301 0.249999 0.250704 0.25172 0.252831 0.253976 0.255293 0.256137 0.256777 0.257457 0.258308 0.259179 0.260069 0.261163 0.262496 0.263903 0.275346 0.277847 0.277826 0.277839 0.277827 0.277859 0.27784 0.277835 0.277845 0.277845 0.277822 0.277834 0.277822 0.277809 0.277833 0.277838 0.277829 0.277841 0.277824 0.277826 0.277814 0.277843 0.277838 0.277847 0.277823 0.277835 0.277842 0.277819 0.277818 0.277829 0.277827 0.277852 0.277834 0.277832 0.27784 0.277837 0.277822 0.277844 0.27785 0.277819 0.277829 0.277844 0.277819 0.277828 0.277829 0.277825 0.277826 0.277829 0.277809 0.277827 0.277831 0.277836 0.277835 0.277823 0.277846 0.277845 0.277816 0.277839 0.277831 0.277834 0.277826 0.277856 0.277847 0.27784 0.277824 0.277832 0.277825 0.277824 0.277829 0.27784 0.277844 0.277828 0.277834 0.277815 0.277846 0.277847 0.277848 0.277812 0.277834 0.277809 0.277831 0.277832 0.277844 0.277842 0.277805 0.277829 0.277811 0.277812 0.277828 0.277799 0.277845 0.277834 0.277836 0.277825 0.277803 0.277823 0.277824 0.277845 0.277835 0.277831 0.277825 0.277824 0.277827 0.277819 0.277839 0.277835 0.27783 0.277855 0.277825 0.277834 0.27782 0.277825 0.277844 0.277846 0.277817 0.277837 0.277835 0.277843 0.277847 0.277829 0.277829 0.277838 0.27784 0.277828 0.277828 0.277823 0.277833 0.277835 0.277828 0.277818 0.277813 0.277815 0.277843 0.27783 0.277832 0.277837 0.277822 0.27785 0.277842 0.27785 0.277821 0.277847 0.27784 0.277842 0.277824 0.277823 0.277842 0.277836 0.27785 0.27783 0.277846 0.277823 0.27782 0.277833 0.277807 0.277832 0.277825 0.27783 0.277864 0.277815 0.232846 0.0970513 0.00540078 0 0 0 0
0.275962 0.275961 0.275942 0.275973 0.27595 0.275966 0.275968 0.275952 0.275964 0.275955 0.275957 0.27597 0.275973 0.275977 0.275978 0.275986 0.275955 0.275958 0.275977 0.275949 0.275981 0.27596 0.275966 0.275968 0.275953 0.275951 0.275947 0.275954 0.275957 0.275952 0.275967 0.275963 0.275955 0.275942 0.275938 0.275942 0.275946 0.27595 0.275961 0.275958 0.275964 0.275955 0.275959 0.275967 0.275985 0.275965 0.275986 0.275941 0.275957 0.275956 0.275965 0.275954 0.27596 0.275959 0.275963 0.275959 0.275965 0.275966 0.275962 0.275951 0.275972 0.275957 0.275977 0.275967 0.27595 0.275965 0.275969 0.275964 0.275966 0.27596 0.275969 0.275952 0.275957 0.275958 0.27595 0.275982 0.275968 0.275954 0.275956 0.275954 0.275965 0.275975 0.275979 0.27595 0.275957 0.275949 0.275972 0.275947 0.275953 0.275953 0.275964 0.275952 0.275956 0.275954 0.275964 0.275954 0.275951 0.275977 0.27596 0.275949 0.275945 0.275943 0.275961 0.275972 0.275971 0.27597 0.275958 0.275948 0.275958 0.275966 0.275953 0.275966 0.275952 0.275955 0.275963 0.275954 0.275957 0.275944 0.275958 0.275952 0.275959 0.275966 0.275953 0.275974 0.275979 0.275953 0.275954 0.275977 0.27596 0.275965 0.27598 0.275983 0.275933 0.275954 0.263843 0.224912 0.224279 0.223918 0.22367 0.22342 0.223365 0.223499 0.223696 0.24428 0.275959 0.275948 0.275968 0.275969 0.275968 0.275961 0.275959 0.27596 0.275942 0.275975 0.275966 0.275953 0.27594 0.247494 0.240262 0.23903 0.238133 0.237306 0.236839 0.236406 0.235964 0.235601 0.235284 0.234973 0.234666 0.234407 0.234267 0.234126 0.233984 0.233842 0.233705 0.233611 0.233533 0.233455 0.233378 0.2333 0.233232 0.233223 0.233224 0.233224 0.233224 0.233224 0.233241 0.233299 0.23337 0.23344 0.233512 0.233583 0.233655 0.233775 0.233918 0.23406 0.234202 0.234344 0.234487 0.23467 0.234886 0.235102 0.235321 0.23554 0.235758 0.23603 0.236332 0.236639 0.236945 0.237255 0.237588 0.238 0.238411 0.238827 0.239243 0.239735 0.240302 0.240874 0.241446 0.242137 0.242936 0.243756 0.244803 0.246074 0.249245 0.275943 0.275964 0.275974 0.275969 0.275969 0.275983 0.275941 0.275969 0.27595 0.275963 0.275954 0.275964 0.275962 0.275948 0.275942 0.275952 0.27596 0.275968 0.275956 0.275958 0.275971 0.275961 0.275972 0.275968 0.275928 0.27595 0.275958 0.275974 0.275954 0.275971 0.275975 0.275972 0.275938 0.275958 0.275968 0.275976 0.275957 0.275968 0.275982 0.275965 0.275978 0.275948 0.275939 0.27595 0.275936 0.275944 0.275969 0.275961 0.275964 0.275946 0.275942 0.27596 0.275962 0.275942 0.275971 0.275956 0.275959 0.275961 0.275966 0.275966 0.275976 0.275967 0.275942 0.275977 0.275976 0.275966 0.275962 0.275964 0.275947 0.275951 0.275954 0.275976 0.275972 0.275963 0.275966 0.275962 0.27596 0.275954 0.275955 0.27595 0.275954 0.275954 0.275974 0.275965 0.27596 0.275951 0.275947 0.27595 0.27597 0.275981 0.275963 0.275971 0.275959 0.275977 0.275956 0.275948 0.275963 0.275969 0.275965 0.27595 0.27598 0.275944 0.275955 0.275967 0.275955 0.275965 0.275957 0.275986 0.275979 0.275962 0.275993 0.275957 0.275272 0.26862 0.265752 0.263813 0.262871 0.262151 0.261451 0.26075 0.260151 0.259589 0.259021 0.25847 0.257904 0.257376 0.256925 0.256474 0.256032 0.255585 0.255143 0.254703 0.254319 0.253921 0.253442 0.252897 0.252279 0.25165 0.251135 0.250649 0.250188 0.249712 0.24923 0.248754 0.248326 0.247975 0.247615 0.24726 0.246907 0.246554 0.246202 0.245853 0.245568 0.24531 0.245053 0.244786 0.244536 0.24429 0.244054 0.243829 0.243637 0.243468 0.24332 0.243176 0.243037 0.242897 0.242758 0.242619 0.242478 0.242341 0.242242 0.242157 0.242072 0.241987 0.241902 0.241818 0.241733 0.241647 0.241563 0.241489 0.241454 0.241423 0.241391 0.241358 0.241327 0.241295 0.241263 0.241231 0.2412 0.241193 0.241215 0.241236 0.241258 0.241281 0.241302 0.241324 0.241346 0.241368 0.241395 0.241467 0.241545 0.241625 0.241704 0.241782 0.241863 0.241942 0.242021 0.242104 0.242233 0.242376 0.242521 0.242662 0.242807 0.242952 0.243093 0.243243 0.243418 0.243658 0.243907 0.244172 0.244446 0.244747 0.245034 0.245344 0.245775 0.246217 0.246672 0.24713 0.24759 0.248079 0.24874 0.249423 0.25012 0.250807 0.251735 0.252791 0.253653 0.254275 0.254882 0.255489 0.256114 0.256751 0.25749 0.258352 0.25923 0.260117 0.261294 0.262629 0.273973 0.275968 0.275968 0.275962 0.275965 0.275961 0.275949 0.275948 0.275949 0.275973 0.275964 0.275933 0.275974 0.275961 0.275951 0.275968 0.275963 0.275954 0.275963 0.275961 0.275955 0.275953 0.275939 0.275982 0.275952 0.275952 0.275975 0.275977 0.275955 0.275974 0.27595 0.275949 0.275952 0.275972 0.275954 0.275975 0.275956 0.275935 0.275965 0.27597 0.275963 0.275951 0.275975 0.275953 0.275946 0.275959 0.275963 0.275953 0.275948 0.275968 0.27595 0.275961 0.275966 0.275957 0.275966 0.275947 0.275957 0.275951 0.27597 0.275976 0.275965 0.275988 0.275953 0.275977 0.275978 0.275942 0.275953 0.27596 0.275941 0.275975 0.275976 0.275958 0.275982 0.275939 0.275961 0.275952 0.275964 0.275954 0.27597 0.27596 0.275953 0.275949 0.275974 0.275965 0.275948 0.275983 0.275961 0.275974 0.275966 0.275964 0.275955 0.275963 0.275968 0.275979 0.275969 0.27595 0.275963 0.275969 0.275977 0.275973 0.275962 0.275954 0.275954 0.275956 0.275943 0.275979 0.275947 0.27597 0.275971 0.275944 0.275961 0.275958 0.275964 0.275964 0.275973 0.275962 0.275967 0.275954 0.275933 0.275951 0.275961 0.275963 0.27595 0.275971 0.275972 0.275956 0.275983 0.275968 0.275943 0.275981 0.275957 0.275967 0.275968 0.275973 0.275961 0.275969 0.275937 0.275959 0.275955 0.275943 0.27594 0.275956 0.27598 0.275974 0.275965 0.275942 0.275952 0.275947 0.275944 0.275975 0.275961 0.275968 0.275974 0.275955 0.275963 0.275968 0.27595 0.275945 0.27597 0.275963 0.275966 0.275954 0.241798 0.115693 0.00935498 0 0
0.274112 0.274115 0.274129 0.274124 0.274116 0.274134 0.27411 0.274122 0.274108 0.274113 0.274121 0.274108 0.274125 0.274103 0.274115 0.274112 0.274104 0.274125 0.274119 0.274111 0.274118 0.274101 0.274125 0.274076 0.274093 0.274103 0.274126 0.27411 0.274115 0.274103 0.27411 0.274093 0.274125 0.274123 0.274117 0.274142 0.274106 0.27412 0.27413 0.274117 0.274129 0.274137 0.274125 0.274111 0.274114 0.274113 0.274098 0.274113 0.274108 0.274111 0.274104 0.274125 0.27414 0.274098 0.27413 0.274108 0.274125 0.274144 0.274118 0.274102 0.274104 0.274104 0.274111 0.274142 0.2741 0.274116 0.274116 0.274119 0.274097 0.274102 0.274107 0.274127 0.274096 0.274128 0.274086 0.274104 0.274107 0.274111 0.274133 0.274113 0.274101 0.274127 0.27412 0.274108 0.274139 0.274123 0.274119 0.274117 0.274111 0.274119 0.274114 0.274105 0.274105 0.274106 0.274121 0.274108 0.274113 0.274113 0.274128 0.274117 0.274127 0.27414 0.274112 0.274114 0.274107 0.274102 0.274108 0.274094 0.274115 0.27412 0.274113 0.274122 0.274106 0.274105 0.274114 0.274121 0.274119 0.274114 0.274149 0.274109 0.274095 0.274102 0.274086 0.274117 0.274138 0.274117 0.274128 0.274121 0.274112 0.274105 0.274103 0.274125 0.274098 0.274111 0.273807 0.230124 0.224498 0.224037 0.223779 0.223524 0.22341 0.223541 0.223694 0.227081 0.272046 0.27412 0.274117 0.274112 0.274104 0.274122 0.274098 0.274104 0.274118 0.274116 0.274108 0.274106 0.274112 0.247348 0.240248 0.239026 0.238118 0.237312 0.236844 0.236405 0.235969 0.235597 0.235286 0.234972 0.234666 0.234411 0.234268 0.234125 0.233982 0.233842 0.233705 0.233612 0.233533 0.233455 0.233376 0.2333 0.233232 0.233223 0.233224 0.233224 0.233224 0.233224 0.233241 0.2333 0.23337 0.233441 0.233513 0.233583 0.233656 0.233774 0.233917 0.234061 0.234202 0.234345 0.234488 0.234669 0.234885 0.235104 0.235323 0.23554 0.235758 0.236031 0.236334 0.236641 0.236948 0.237252 0.23759 0.237994 0.238411 0.238833 0.239241 0.239735 0.240309 0.240873 0.241445 0.242138 0.242945 0.243751 0.244817 0.246074 0.248922 0.274114 0.274104 0.274111 0.274125 0.274105 0.274119 0.27411 0.274112 0.27413 0.274108 0.274139 0.274137 0.274113 0.27412 0.274124 0.274105 0.274103 0.274114 0.274121 0.274122 0.274118 0.274128 0.274108 0.274136 0.274118 0.274086 0.274128 0.274103 0.2741 0.274124 0.274112 0.274133 0.274115 0.274115 0.274113 0.274098 0.274116 0.274111 0.274112 0.274092 0.274122 0.274121 0.274118 0.274107 0.274104 0.274129 0.274117 0.27412 0.2741 0.274123 0.274102 0.274126 0.274114 0.274113 0.2741 0.274135 0.274125 0.274125 0.27412 0.274125 0.274119 0.274125 0.274104 0.274099 0.274104 0.27412 0.27412 0.274109 0.27411 0.274095 0.274128 0.274105 0.274098 0.274116 0.274121 0.274099 0.274121 0.274111 0.274124 0.274121 0.274118 0.274125 0.27411 0.274106 0.274109 0.27411 0.274128 0.274092 0.274105 0.274115 0.274123 0.274128 0.274115 0.274106 0.274116 0.274111 0.27411 0.274131 0.274123 0.274101 0.27413 0.274123 0.274118 0.274109 0.274107 0.274119 0.27413 0.274116 0.274115 0.274106 0.274118 0.274135 0.274109 0.270518 0.266495 0.264263 0.262778 0.261602 0.26082 0.260196 0.259619 0.259068 0.2585 0.257947 0.257407 0.256907 0.256472 0.256027 0.255586 0.255147 0.254701 0.254283 0.253919 0.253559 0.253208 0.252852 0.252492 0.252079 0.251622 0.2512 0.25072 0.25025 0.249775 0.249304 0.248849 0.248457 0.248099 0.247747 0.247386 0.247033 0.246682 0.246322 0.246013 0.245749 0.24549 0.245232 0.244974 0.244711 0.244449 0.244189 0.243947 0.243754 0.24357 0.243393 0.243216 0.243036 0.242862 0.242695 0.242527 0.242365 0.24225 0.242158 0.242063 0.241972 0.24188 0.241789 0.2417 0.241612 0.241526 0.241451 0.241417 0.241386 0.241353 0.241321 0.24129 0.241258 0.241226 0.241193 0.241162 0.241154 0.241176 0.241198 0.241221 0.241242 0.241263 0.241286 0.241308 0.24133 0.241357 0.241426 0.241506 0.241587 0.241667 0.24175 0.241834 0.241921 0.242008 0.242097 0.242246 0.242414 0.242582 0.242756 0.242945 0.243121 0.243308 0.243505 0.243757 0.244062 0.244367 0.244663 0.244968 0.245264 0.245572 0.245969 0.246417 0.246857 0.247321 0.247773 0.248251 0.248869 0.249563 0.250235 0.25094 0.251635 0.252323 0.252818 0.253274 0.253727 0.25425 0.254862 0.255486 0.256106 0.256737 0.257536 0.258401 0.25928 0.26021 0.263443 0.27413 0.274113 0.274113 0.27412 0.274125 0.274124 0.274099 0.274109 0.274115 0.274104 0.274108 0.274111 0.27409 0.274124 0.274123 0.274108 0.274137 0.274106 0.274115 0.274103 0.274117 0.274131 0.274108 0.274127 0.27413 0.274129 0.274112 0.274118 0.274107 0.274126 0.274123 0.274108 0.274108 0.274123 0.274112 0.274103 0.27412 0.274116 0.274104 0.274115 0.274118 0.27411 0.274121 0.274095 0.274112 0.274136 0.274116 0.274115 0.274112 0.274121 0.274138 0.274123 0.274119 0.274117 0.274107 0.274132 0.274133 0.274115 0.274097 0.274111 0.274099 0.274116 0.274113 0.274125 0.27412 0.274115 0.274135 0.274122 0.274123 0.274113 0.274129 0.274107 0.274115 0.274113 0.274127 0.274129 0.274113 0.274106 0.274099 0.274105 0.274103 0.274121 0.274125 0.274117 0.274084 0.274126 0.27411 0.274101 0.274128 0.274129 0.274111 0.274134 0.274114 0.274117 0.274126 0.27411 0.274122 0.274128 0.274108 0.2741 0.274099 0.274101 0.274123 0.274107 0.274119 0.274107 0.274098 0.274116 0.274096 0.274111 0.274116 0.274099 0.274115 0.274135 0.274122 0.274111 0.274124 0.274126 0.274097 0.274113 0.274123 0.274113 0.274111 0.274109 0.274099 0.274117 0.274117 0.274112 0.274135 0.274122 0.274112 0.27411 0.274104 0.274097 0.274108 0.274124 0.274144 0.274126 0.274109 0.274107 0.274101 0.274102 0.274116 0.274118 0.274149 0.274104 0.274112 0.274114 0.274103 0.274122 0.274112 0.274123 0.274116 0.274125 0.274111 0.274107 0.27411 0.27411 0.274109 0.274127 0.274107 0.274109 0.274108 0.274109 0.252138 0.132185 0.0199547
0.272293 0.272283 0.272296 0.272289 0.272298 0.27229 0.272285 0.272305 0.272274 0.272282 0.2723 0.272286 0.272297 0.272315 0.272304 0.272306 0.27228 0.272281 0.272288 0.27229 0.272281 0.27231 0.272286 0.272294 0.272287 0.272284 0.272328 0.272298 0.272296 0.272297 0.272292 0.272273 0.272295 0.272282 0.272279 0.272304 0.272298 0.272292 0.272291 0.272311 0.272297 0.272296 0.272289 0.2723 0.272307 0.272294 0.272289 0.272287 0.272291 0.272291 0.272295 0.272305 0.272286 0.272299 0.272297 0.272292 0.272303 0.272289 0.272283 0.272283 0.272293 0.272288 0.272311 0.272303 0.272291 0.272278 0.272288 0.272292 0.272306 0.272294 0.272277 0.272297 0.272282 0.272298 0.272286 0.272275 0.272304 0.272301 0.2723 0.272312 0.27232 0.272301 0.272312 0.27228 0.272292 0.272302 0.272288 0.272312 0.272293 0.272288 0.272295 0.272281 0.272307 0.272305 0.272287 0.272311 0.272305 0.272302 0.272284 0.272275 0.272279 0.272313 0.272307 0.272292 0.272296 0.272299 0.2723 0.272308 0.272287 0.272284 0.272294 0.272312 0.272307 0.272304 0.272272 0.272292 0.272281 0.272285 0.272304 0.272303 0.272298 0.272298 0.272292 0.272313 0.272308 0.272294 0.272313 0.272262 0.272294 0.272279 0.272279 0.272298 0.272306 0.272286 0.272293 0.245161 0.224874 0.224267 0.223977 0.223713 0.223519 0.223623 0.223768 0.224163 0.255939 0.272304 0.272293 0.272284 0.272293 0.272307 0.272308 0.272337 0.27229 0.27229 0.272283 0.272289 0.272276 0.247179 0.240256 0.239038 0.238143 0.237315 0.236853 0.236404 0.235964 0.235599 0.235285 0.234979 0.234668 0.234409 0.234267 0.234124 0.233984 0.233843 0.233704 0.233611 0.233534 0.233455 0.233377 0.2333 0.233232 0.233223 0.233224 0.233224 0.233224 0.233224 0.233241 0.2333 0.23337 0.23344 0.233513 0.233583 0.233657 0.233775 0.233917 0.234061 0.2342 0.234346 0.23449 0.234667 0.234886 0.235102 0.235321 0.235537 0.235756 0.23603 0.236334 0.236641 0.236949 0.237254 0.237589 0.237997 0.238417 0.238832 0.239244 0.239733 0.240305 0.240872 0.241441 0.242143 0.242941 0.243752 0.2448 0.24606 0.248734 0.272288 0.272281 0.272297 0.272289 0.272299 0.272299 0.272295 0.272323 0.272296 0.272278 0.272292 0.272289 0.272294 0.272279 0.272293 0.272304 0.272291 0.272283 0.272316 0.27229 0.272278 0.272295 0.272299 0.27228 0.272287 0.272298 0.272281 0.272299 0.272271 0.272297 0.272287 0.272296 0.272302 0.272291 0.272278 0.272292 0.272298 0.272301 0.272275 0.272292 0.272301 0.272299 0.272286 0.272286 0.272301 0.272281 0.272284 0.2723 0.272304 0.272299 0.272287 0.272274 0.2723 0.272304 0.272309 0.272285 0.272309 0.272287 0.272285 0.27232 0.272293 0.272304 0.27232 0.27231 0.272305 0.272292 0.272293 0.272326 0.272294 0.272289 0.272315 0.272275 0.272297 0.272294 0.272286 0.27229 0.272264 0.272312 0.272291 0.272289 0.272289 0.27229 0.272304 0.272283 0.272303 0.272303 0.272288 0.272277 0.272286 0.272293 0.2723 0.272297 0.272305 0.27229 0.272306 0.272285 0.272291 0.272296 0.2723 0.272296 0.272296 0.272312 0.272297 0.272301 0.272298 0.272293 0.272301 0.272267 0.272323 0.27229 0.272293 0.272302 0.272288 0.271749 0.267339 0.264891 0.263227 0.261807 0.260514 0.259694 0.259097 0.258546 0.257978 0.257432 0.256924 0.25647 0.256015 0.255576 0.255131 0.25469 0.254254 0.253874 0.25352 0.253163 0.25281 0.252457 0.252103 0.251756 0.251448 0.251164 0.250873 0.250559 0.2502 0.249803 0.249367 0.248953 0.248586 0.248227 0.247877 0.247518 0.247157 0.246799 0.246468 0.246196 0.245931 0.245674 0.245413 0.245151 0.244894 0.244633 0.244371 0.244167 0.24399 0.243814 0.243623 0.243449 0.243268 0.24309 0.242911 0.242724 0.242593 0.242481 0.242376 0.242269 0.242158 0.242051 0.241943 0.241836 0.241724 0.241633 0.24159 0.24155 0.241511 0.241464 0.241431 0.241386 0.241345 0.241306 0.241271 0.241264 0.241291 0.241318 0.241344 0.241367 0.241396 0.241427 0.241458 0.241482 0.24152 0.241616 0.241719 0.241815 0.24192 0.242028 0.242133 0.242233 0.242339 0.242461 0.242643 0.242839 0.243028 0.243213 0.243407 0.243595 0.243795 0.244004 0.244299 0.244588 0.244902 0.245201 0.245506 0.245815 0.246147 0.246596 0.247054 0.247509 0.247958 0.248434 0.248991 0.249631 0.25019 0.250651 0.251015 0.251391 0.25184 0.252287 0.252745 0.253205 0.253676 0.254232 0.254845 0.25547 0.256092 0.256746 0.257586 0.258447 0.259339 0.266416 0.272295 0.2723 0.272279 0.272285 0.272295 0.272291 0.272297 0.272291 0.272294 0.272287 0.272306 0.272309 0.272293 0.272287 0.272273 0.272276 0.272287 0.2723 0.272302 0.272299 0.272297 0.272292 0.272299 0.272275 0.272299 0.272304 0.272319 0.272311 0.272296 0.272294 0.272295 0.272287 0.272294 0.272312 0.272319 0.272279 0.272302 0.272292 0.272268 0.272304 0.272274 0.272293 0.272281 0.272299 0.272284 0.272315 0.272312 0.272294 0.272293 0.272284 0.272279 0.272307 0.2723 0.272281 0.272282 0.272293 0.272278 0.272298 0.272286 0.272273 0.272284 0.272291 0.272293 0.272283 0.272291 0.272293 0.272291 0.272276 0.272291 0.27229 0.27232 0.272285 0.272294 0.272294 0.272311 0.272291 0.272277 0.272288 0.272296 0.272303 0.272287 0.272306 0.272275 0.27229 0.272299 0.272292 0.272284 0.272294 0.272311 0.272307 0.272285 0.272304 0.272277 0.27228 0.272312 0.272271 0.272286 0.272306 0.272265 0.272297 0.272292 0.272299 0.272319 0.272293 0.272282 0.2723 0.272289 0.272282 0.272295 0.2723 0.272279 0.272277 0.2723 0.272289 0.272289 0.272282 0.272294 0.272284 0.272295 0.272312 0.272286 0.272299 0.272286 0.272289 0.272285 0.272312 0.272327 0.272319 0.272287 0.272274 0.2723 0.272289 0.27227 0.272283 0.272303 0.27231 0.27231 0.272306 0.272301 0.272286 0.272293 0.272278 0.272297 0.272283 0.272298 0.27231 0.272283 0.272297 0.272257 0.272299 0.272268 0.272291 0.272309 0.272304 0.272296 0.272284 0.272262 0.272298 0.272326 0.272293 0.272286 0.272287 0.272321 0.272322 0.272283 0.272281 0.258776
0.27049 0.270499 0.270504 0.270491 0.270516 0.270477 0.270497 0.270475 0.27049 0.270491 0.27052 0.270501 0.2705 0.270504 0.270491 0.270482 0.270478 0.27049 0.270483 0.270487 0.270499 0.270499 0.270507 0.270504 0.270475 0.270486 0.270501 0.270488 0.270502 0.270503 0.270488 0.270475 0.270506 0.270504 0.270507 0.270483 0.270494 0.270487 0.270486 0.270481 0.270499 0.270506 0.270502 0.270516 0.270494 0.270483 0.270519 0.27051 0.270492 0.270483 0.270506 0.2705 0.270495 0.2705 0.270479 0.270469 0.2705 0.270522 0.270497 0.270484 0.270472 0.270493 0.270489 0.270485 0.270492 0.270492 0.270483 0.270505 0.27049 0.270494 0.270488 0.270492 0.2705 0.270494 0.270503 0.270501 0.270509 0.270483 0.2705 0.270509 0.270496 0.270487 0.270517 0.270513 0.270504 0.270487 0.270488 0.270476 0.270504 0.270499 0.270494 0.270488 0.27049 0.270492 0.270517 0.270504 0.270502 0.270512 0.270509 0.270492 0.270519 0.27048 0.270487 0.270485 0.27049 0.270496 0.270512 0.270497 0.270508 0.270497 0.270487 0.2705 0.270501 0.270489 0.270491 0.270491 0.270497 0.270493 0.27049 0.270504 0.270492 0.270492 0.270494 0.270512 0.270492 0.270527 0.270491 0.270488 0.270495 0.270491 0.2705 0.270472 0.270473 0.270505 0.270486 0.260575 0.225255 0.22457 0.224206 0.223937 0.223684 0.223709 0.223855 0.224097 0.237351 0.270506 0.270496 0.270496 0.270487 0.270506 0.270502 0.27051 0.270491 0.270488 0.270479 0.270505 0.270515 0.246936 0.240241 0.239026 0.238097 0.237317 0.236853 0.236408 0.235968 0.235604 0.235292 0.234977 0.23467 0.23441 0.234266 0.234124 0.233983 0.233843 0.233704 0.233611 0.233532 0.233456 0.233378 0.233301 0.233232 0.233223 0.233224 0.233224 0.233224 0.233224 0.233241 0.233299 0.23337 0.233441 0.233513 0.233583 0.233656 0.233773 0.233917 0.23406 0.234202 0.234347 0.234488 0.234669 0.234883 0.235101 0.235324 0.235539 0.235759 0.23603 0.236331 0.236644 0.236945 0.237257 0.237587 0.237996 0.238417 0.238832 0.239248 0.239731 0.240307 0.240873 0.241444 0.242125 0.242932 0.243754 0.244807 0.246067 0.248703 0.270494 0.270488 0.27051 0.270477 0.270484 0.270504 0.270477 0.270503 0.270496 0.270496 0.270501 0.27051 0.270508 0.270505 0.270471 0.270501 0.270501 0.270502 0.270489 0.27052 0.270468 0.270495 0.270496 0.270506 0.270512 0.27049 0.270508 0.270498 0.270477 0.270493 0.270499 0.270499 0.270503 0.270497 0.270468 0.270467 0.270503 0.270514 0.270512 0.270501 0.270477 0.270511 0.270487 0.270484 0.270497 0.270485 0.270489 0.270514 0.270507 0.270492 0.27051 0.270474 0.270505 0.270473 0.270504 0.270512 0.270492 0.270501 0.270487 0.270472 0.270492 0.270488 0.270508 0.270517 0.270504 0.270508 0.270499 0.270487 0.270494 0.270499 0.270474 0.270501 0.270491 0.270506 0.270504 0.270502 0.270497 0.270485 0.270496 0.27051 0.270517 0.270496 0.270504 0.270484 0.270487 0.270504 0.2705 0.270493 0.270513 0.270503 0.270492 0.270495 0.270502 0.270481 0.270512 0.270482 0.270506 0.270492 0.27048 0.270483 0.270469 0.270476 0.270477 0.270504 0.270505 0.270504 0.270513 0.270503 0.270477 0.270513 0.270497 0.270495 0.270494 0.270512 0.269073 0.26563 0.263689 0.262282 0.260886 0.259774 0.258835 0.258067 0.257462 0.256928 0.25647 0.256019 0.255578 0.25513 0.254691 0.254259 0.253838 0.253482 0.253126 0.252772 0.252413 0.252067 0.251719 0.251378 0.251078 0.250803 0.250517 0.250232 0.249958 0.249675 0.249401 0.249134 0.248873 0.2486 0.248302 0.247985 0.247655 0.247296 0.246937 0.246643 0.246376 0.246118 0.245859 0.245593 0.245329 0.245071 0.24481 0.244588 0.244408 0.244228 0.24405 0.243865 0.243684 0.243506 0.243324 0.243144 0.243003 0.242895 0.242789 0.242679 0.242569 0.242451 0.242348 0.242237 0.242132 0.242034 0.241986 0.241947 0.24191 0.241867 0.241828 0.241783 0.241745 0.241708 0.241695 0.241663 0.241693 0.241726 0.241747 0.241783 0.241809 0.241835 0.241869 0.241892 0.241946 0.242051 0.242157 0.242255 0.24236 0.242464 0.242566 0.242671 0.242778 0.242928 0.243119 0.243312 0.243504 0.243693 0.243893 0.244082 0.244279 0.244541 0.244831 0.245148 0.245438 0.245753 0.246058 0.24636 0.246784 0.247233 0.24769 0.248109 0.248486 0.248835 0.249216 0.249558 0.249893 0.250235 0.25057 0.250916 0.251313 0.251778 0.252222 0.252681 0.253154 0.253619 0.254217 0.25484 0.255458 0.256067 0.256768 0.257621 0.259163 0.268938 0.270497 0.270495 0.270485 0.270489 0.270481 0.270504 0.270509 0.270507 0.270503 0.270485 0.270503 0.270477 0.270489 0.270497 0.270491 0.270481 0.270515 0.270482 0.270485 0.270495 0.270496 0.270486 0.270497 0.270491 0.270504 0.270497 0.270503 0.270494 0.270504 0.27049 0.270479 0.270491 0.270479 0.270495 0.270501 0.270512 0.27051 0.270504 0.270501 0.270508 0.270469 0.270513 0.27049 0.2705 0.270484 0.270494 0.2705 0.270495 0.270516 0.270487 0.270499 0.270489 0.270515 0.270498 0.270491 0.27049 0.270504 0.270484 0.270498 0.270514 0.270488 0.27049 0.270494 0.270497 0.270515 0.270481 0.270483 0.270498 0.270501 0.270524 0.270514 0.270506 0.270498 0.270494 0.270493 0.270494 0.270507 0.270488 0.270498 0.270501 0.2705 0.2705 0.270505 0.270498 0.270496 0.270485 0.270489 0.270494 0.270497 0.270481 0.270496 0.270496 0.270493 0.270502 0.270502 0.27049 0.270508 0.270498 0.270514 0.270498 0.270485 0.270478 0.270503 0.270497 0.270495 0.270504 0.270514 0.270491 0.27049 0.270489 0.27051 0.270504 0.270512 0.270517 0.270497 0.270491 0.270492 0.270484 0.270481 0.270492 0.270504 0.270499 0.27051 0.270493 0.2705 0.270467 0.270497 0.270505 0.270495 0.27049 0.270503 0.27049 0.270496 0.27051 0.270501 0.270492 0.270494 0.270476 0.270486 0.270507 0.270493 0.270489 0.270495 0.270481 0.270519 0.270494 0.270501 0.270493 0.270505 0.270499 0.270487 0.270517 0.270504 0.270482 0.270489 0.270504 0.270495 0.270512 0.270508 0.270484 0.270489 0.270503 0.270491 0.270511 0.270501 0.270505 0.270494
0.268722 0.268732 0.268708 0.268725 0.268726 0.268728 0.268712 0.268709 0.268714 0.268699 0.268726 0.268721 0.268706 0.268731 0.268703 0.268746 0.26871 0.268718 0.268715 0.26872 0.268725 0.268718 0.26873 0.268747 0.268729 0.268735 0.268711 0.268723 0.268732 0.268741 0.268731 0.268723 0.268713 0.268718 0.26872 0.268717 0.268725 0.26873 0.268708 0.268738 0.268709 0.26871 0.268719 0.26871 0.26874 0.268733 0.268722 0.268719 0.268713 0.268719 0.268721 0.268717 0.268728 0.268747 0.268718 0.268722 0.268717 0.268725 0.268734 0.26873 0.26872 0.268727 0.268744 0.268708 0.268704 0.268727 0.268711 0.268731 0.268734 0.26873 0.268711 0.268746 0.268725 0.268703 0.268699 0.268716 0.268728 0.26872 0.268736 0.268736 0.268716 0.268734 0.268722 0.268742 0.268723 0.26874 0.268721 0.268712 0.268722 0.26872 0.268711 0.268718 0.26872 0.268717 0.268729 0.268717 0.268711 0.268728 0.268715 0.268709 0.26872 0.268717 0.268715 0.268733 0.268711 0.268714 0.268716 0.268737 0.268711 0.268733 0.268732 0.268705 0.268715 0.26872 0.268703 0.26873 0.268742 0.268722 0.268728 0.268714 0.268734 0.268733 0.268713 0.268716 0.268726 0.268722 0.268713 0.268727 0.268715 0.268718 0.268706 0.268716 0.26872 0.268723 0.268719 0.268613 0.231204 0.224924 0.224424 0.224171 0.223898 0.223796 0.223938 0.224091 0.225247 0.263376 0.26872 0.26872 0.268727 0.268733 0.268718 0.268736 0.268736 0.268727 0.268729 0.268704 0.268703 0.246682 0.240257 0.239024 0.238119 0.237315 0.236853 0.236408 0.235973 0.235607 0.235291 0.234983 0.234667 0.234412 0.234268 0.234126 0.233984 0.233841 0.233703 0.233611 0.233533 0.233455 0.233377 0.2333 0.233232 0.233223 0.233224 0.233224 0.233224 0.233224 0.233241 0.2333 0.23337 0.233442 0.233513 0.233584 0.233656 0.233776 0.233917 0.23406 0.2342 0.234345 0.234489 0.234666 0.234885 0.235102 0.235319 0.235536 0.235758 0.236027 0.236335 0.236634 0.236951 0.237254 0.237591 0.238005 0.238409 0.238836 0.239243 0.239733 0.240303 0.240868 0.24144 0.242133 0.242936 0.243752 0.244805 0.246059 0.248673 0.268724 0.268735 0.268746 0.268731 0.268715 0.26873 0.268721 0.26872 0.268735 0.268725 0.268709 0.268718 0.268705 0.268728 0.268699 0.268722 0.268713 0.268698 0.268744 0.268716 0.268706 0.268723 0.26874 0.268722 0.268743 0.26871 0.268728 0.268741 0.268728 0.268715 0.268712 0.268718 0.268723 0.268737 0.268743 0.268742 0.268703 0.268717 0.268715 0.268723 0.268733 0.268733 0.268732 0.268726 0.268714 0.268721 0.268733 0.268712 0.268734 0.26873 0.268707 0.268718 0.268715 0.268724 0.268718 0.268723 0.268712 0.268724 0.268727 0.268714 0.268722 0.268731 0.268734 0.268733 0.268718 0.268711 0.268736 0.268718 0.26873 0.268737 0.268707 0.268718 0.268725 0.268718 0.268742 0.268716 0.268726 0.268723 0.268725 0.268728 0.268711 0.268716 0.268723 0.268724 0.268721 0.268708 0.268724 0.268728 0.268722 0.268726 0.268727 0.268712 0.268708 0.268725 0.268723 0.268708 0.268729 0.268731 0.268717 0.268699 0.268714 0.268723 0.268729 0.268726 0.268731 0.268693 0.268728 0.268705 0.268728 0.268718 0.26873 0.268732 0.268727 0.268738 0.268719 0.267405 0.264243 0.262745 0.261329 0.260108 0.259135 0.258184 0.257246 0.256528 0.256025 0.255568 0.255127 0.254686 0.254248 0.253813 0.253438 0.253089 0.25273 0.252373 0.252022 0.251666 0.251319 0.251007 0.250717 0.250443 0.250156 0.249877 0.249603 0.249322 0.249049 0.248799 0.248577 0.248359 0.248139 0.247924 0.247701 0.247475 0.247224 0.246985 0.246763 0.246532 0.246297 0.246036 0.245781 0.245519 0.245252 0.245015 0.244834 0.244649 0.244471 0.244278 0.244101 0.24392 0.243743 0.243561 0.243413 0.243301 0.243193 0.243087 0.242969 0.24286 0.242757 0.242644 0.242531 0.24244 0.242395 0.242354 0.24231 0.242273 0.242236 0.24219 0.242146 0.242104 0.242073 0.242087 0.24211 0.242138 0.24217 0.24219 0.242226 0.242252 0.24228 0.242314 0.242383 0.242489 0.242596 0.242695 0.2428 0.242901 0.243006 0.24311 0.243225 0.243411 0.243599 0.243792 0.243981 0.244171 0.244368 0.244563 0.244779 0.24507 0.245374 0.245681 0.245987 0.24628 0.246557 0.246853 0.247187 0.247479 0.247739 0.247987 0.248234 0.248493 0.248781 0.249108 0.249442 0.249786 0.250129 0.250468 0.250819 0.25126 0.251705 0.252164 0.252627 0.25308 0.253591 0.254215 0.25482 0.255439 0.256066 0.257383 0.261445 0.268722 0.268729 0.268735 0.26872 0.268714 0.268712 0.268717 0.268739 0.268724 0.268718 0.268736 0.268735 0.26872 0.268735 0.26872 0.268715 0.268712 0.268747 0.268715 0.268716 0.268718 0.268713 0.268737 0.268715 0.26873 0.268722 0.268724 0.268726 0.268713 0.26873 0.268734 0.268734 0.268721 0.268716 0.268744 0.268702 0.268729 0.268721 0.268714 0.268716 0.268719 0.268729 0.268726 0.26875 0.268734 0.268713 0.268755 0.268714 0.268731 0.26872 0.268702 0.26873 0.26872 0.26873 0.268713 0.268718 0.268742 0.268725 0.268715 0.268729 0.268715 0.268736 0.268714 0.268727 0.268718 0.268715 0.268719 0.268722 0.268716 0.268706 0.268736 0.268738 0.26871 0.268714 0.268726 0.268723 0.268737 0.268736 0.268732 0.268738 0.268721 0.268734 0.268734 0.268718 0.268711 0.268703 0.268718 0.268722 0.268714 0.268703 0.268738 0.268714 0.268716 0.26874 0.268718 0.268709 0.268739 0.268744 0.268731 0.268709 0.268723 0.268721 0.26872 0.268717 0.268725 0.26871 0.268736 0.268737 0.268713 0.268714 0.268714 0.268726 0.268713 0.268726 0.268718 0.268705 0.26873 0.268735 0.268729 0.268713 0.268725 0.268725 0.268717 0.26871 0.268713 0.268734 0.268749 0.268719 0.268728 0.268713 0.268705 0.268723 0.268727 0.26872 0.268745 0.268747 0.268701 0.26873 0.268714 0.268716 0.268722 0.268727 0.268708 0.268719 0.268743 0.268722 0.268716 0.26875 0.268696 0.268701 0.268728 0.268707 0.268731 0.268725 0.268706 0.268707 0.268724 0.268706 0.268724 0.26872 0.268725 0.268738 0.26872 0.26873 0.268709 0.268715 0.268701 0.268705
0.267001 0.266979 0.266974 0.266986 0.266963 0.266966 0.266964 0.266988 0.266972 0.266965 0.266975 0.266956 0.266981 0.266976 0.266978 0.266971 0.266957 0.266972 0.266982 0.266952 0.266962 0.266977 0.266969 0.266969 0.266973 0.266986 0.266963 0.266954 0.266975 0.266968 0.266951 0.266961 0.26697 0.266981 0.266963 0.266964 0.266967 0.266968 0.266993 0.266972 0.266968 0.26697 0.266958 0.266977 0.266946 0.266972 0.267004 0.266968 0.266969 0.266975 0.266993 0.266985 0.266986 0.266984 0.26697 0.266983 0.26697 0.266987 0.26698 0.266983 0.266986 0.266977 0.266972 0.266965 0.26698 0.266967 0.266967 0.266968 0.266981 0.266968 0.266971 0.266975 0.26698 0.266975 0.266962 0.266985 0.266972 0.266961 0.266965 0.266977 0.266948 0.266966 0.266968 0.266984 0.266985 0.266973 0.26697 0.26697 0.266976 0.266971 0.266973 0.266948 0.266989 0.26696 0.266969 0.266967 0.266989 0.266966 0.266969 0.266993 0.26699 0.266982 0.266974 0.266963 0.266971 0.266949 0.26696 0.266981 0.266976 0.266962 0.266961 0.266978 0.266959 0.26697 0.266982 0.266991 0.266993 0.266974 0.266985 0.266951 0.266968 0.266965 0.266953 0.26698 0.266966 0.266987 0.266966 0.266957 0.26699 0.266954 0.266993 0.266964 0.266963 0.266986 0.266977 0.266986 0.245409 0.225295 0.224672 0.224389 0.224125 0.223921 0.224021 0.224168 0.224533 0.237175 0.266855 0.266969 0.266969 0.266966 0.266964 0.266961 0.266981 0.266971 0.26697 0.266955 0.26698 0.246634 0.240275 0.239033 0.238112 0.237324 0.236855 0.236411 0.235977 0.235605 0.235294 0.234985 0.234672 0.234412 0.234266 0.234126 0.233985 0.233841 0.233704 0.233612 0.233533 0.233456 0.233378 0.2333 0.233232 0.233223 0.233224 0.233224 0.233224 0.233224 0.233241 0.233299 0.23337 0.233441 0.233513 0.233584 0.233656 0.233775 0.233918 0.23406 0.234204 0.234345 0.234488 0.234666 0.234882 0.235101 0.235323 0.235538 0.235758 0.236027 0.236335 0.236641 0.236946 0.237253 0.23759 0.237997 0.238411 0.238829 0.239246 0.23973 0.240296 0.240873 0.24144 0.24214 0.242943 0.243758 0.244794 0.246072 0.248575 0.266951 0.266964 0.266962 0.266964 0.266964 0.266972 0.266988 0.266981 0.266981 0.266943 0.266968 0.266964 0.266973 0.266974 0.266975 0.266972 0.266984 0.266984 0.266948 0.266965 0.266972 0.266965 0.266985 0.266959 0.266982 0.266981 0.266974 0.266981 0.266973 0.266976 0.26697 0.266987 0.266987 0.266968 0.266975 0.26698 0.266988 0.266978 0.266966 0.266972 0.266951 0.266943 0.266966 0.266976 0.26698 0.266961 0.266971 0.266971 0.266969 0.266967 0.266964 0.26696 0.266974 0.266964 0.266947 0.266973 0.266958 0.266945 0.266987 0.266996 0.266954 0.266986 0.266977 0.266948 0.266977 0.266972 0.266975 0.266996 0.266975 0.266972 0.26697 0.266961 0.266966 0.266973 0.266977 0.266962 0.266974 0.266973 0.266975 0.266979 0.266977 0.266979 0.26699 0.266972 0.26696 0.26698 0.26698 0.266955 0.266989 0.266975 0.266958 0.266974 0.266983 0.266978 0.266951 0.266936 0.26698 0.266967 0.266968 0.266967 0.266973 0.266969 0.266973 0.266969 0.266966 0.266967 0.266974 0.266994 0.266963 0.266969 0.266973 0.266968 0.266976 0.26697 0.266985 0.266961 0.265942 0.263385 0.261794 0.26048 0.259474 0.258513 0.257569 0.256665 0.255957 0.255287 0.254726 0.254247 0.253804 0.253405 0.253039 0.252685 0.252333 0.251985 0.251635 0.251283 0.250938 0.250644 0.25036 0.25008 0.249802 0.249521 0.249243 0.248969 0.248693 0.248466 0.248251 0.248032 0.247807 0.247595 0.247373 0.247152 0.246939 0.246755 0.246588 0.246422 0.246256 0.246087 0.245921 0.245746 0.245543 0.245348 0.24519 0.245029 0.244865 0.244699 0.244521 0.244339 0.244162 0.243979 0.243824 0.243711 0.2436 0.243493 0.243386 0.243274 0.243162 0.243051 0.242938 0.242851 0.242805 0.24276 0.242719 0.242681 0.242643 0.242603 0.242558 0.242514 0.242481 0.242498 0.242528 0.242553 0.242585 0.242613 0.242646 0.242672 0.242694 0.24273 0.242826 0.242926 0.243032 0.243139 0.243241 0.243343 0.243452 0.243554 0.243694 0.243876 0.244074 0.244268 0.244461 0.244659 0.244833 0.245006 0.245221 0.245456 0.245678 0.24588 0.246067 0.246246 0.246423 0.246611 0.246853 0.247101 0.247349 0.2476 0.247846 0.248102 0.248359 0.248674 0.248999 0.249344 0.249688 0.250024 0.250364 0.250741 0.251193 0.251642 0.252099 0.252556 0.253023 0.253573 0.25418 0.254917 0.256045 0.258188 0.263745 0.266979 0.266968 0.266961 0.266985 0.266949 0.266985 0.266963 0.266964 0.266969 0.266959 0.266967 0.266966 0.266984 0.266987 0.266956 0.266979 0.266968 0.26697 0.266961 0.266971 0.266973 0.266973 0.266963 0.266987 0.266988 0.266968 0.266979 0.266992 0.266969 0.266959 0.266975 0.266966 0.266962 0.266973 0.266983 0.266971 0.266968 0.26695 0.26697 0.266974 0.26696 0.266967 0.266968 0.266986 0.266978 0.266972 0.266967 0.266974 0.266983 0.266949 0.266992 0.266949 0.26699 0.26698 0.266989 0.266969 0.266972 0.266982 0.266977 0.266989 0.266981 0.266977 0.266959 0.266958 0.266986 0.266972 0.266967 0.266985 0.266966 0.266966 0.266974 0.266975 0.266971 0.266958 0.266981 0.266975 0.26696 0.266971 0.266966 0.266965 0.266972 0.266985 0.266979 0.266972 0.266963 0.266968 0.266973 0.266959 0.266971 0.266971 0.266973 0.266973 0.266975 0.266966 0.266971 0.266956 0.266967 0.266994 0.266991 0.266977 0.266976 0.266947 0.266938 0.266978 0.26697 0.266975 0.266988 0.266987 0.266976 0.266973 0.266962 0.266977 0.266958 0.266979 0.266979 0.266969 0.266989 0.266985 0.266967 0.266975 0.266961 0.266957 0.266966 0.266985 0.26698 0.26698 0.266976 0.266946 0.266975 0.266984 0.26696 0.266971 0.266969 0.266963 0.266973 0.266969 0.266963 0.266959 0.266978 0.26697 0.266978 0.266992 0.266975 0.266971 0.266972 0.266965 0.266961 0.266973 0.266979 0.266988 0.26698 0.266973 0.266953 0.26697 0.266954 0.266985 0.266974 0.266974 0.266993 0.266976 0.266975 0.266987 0.266976 0.266974 0.26696 0.266973 0.266969 0.26697
0.265251 0.265253 0.265257 0.265221 0.265236 0.265269 0.26523 0.26526 0.26524 0.265222 0.26526 0.265257 0.265252 0.265241 0.265243 0.265229 0.265256 0.265239 0.265244 0.265261 0.265234 0.265249 0.265251 0.265223 0.265226 0.26523 0.265255 0.265251 0.265229 0.265257 0.265256 0.265261 0.265251 0.265242 0.265247 0.265246 0.265258 0.265246 0.26524 0.265264 0.26525 0.265247 0.265252 0.265237 0.265214 0.265238 0.265248 0.265224 0.265252 0.265252 0.265236 0.265253 0.265253 0.265242 0.265243 0.265239 0.265238 0.265241 0.265253 0.265231 0.265231 0.265245 0.265233 0.265248 0.265252 0.265262 0.265234 0.265247 0.265242 0.265234 0.265235 0.265254 0.265235 0.26525 0.265247 0.265247 0.265235 0.265254 0.265251 0.265244 0.265243 0.265243 0.265255 0.265248 0.265227 0.265238 0.265225 0.26525 0.265249 0.265238 0.265228 0.265259 0.265251 0.265244 0.265241 0.265228 0.265259 0.265231 0.265235 0.265225 0.265239 0.265247 0.265231 0.265259 0.265261 0.265245 0.265239 0.265239 0.265236 0.265234 0.265253 0.265234 0.265254 0.265248 0.265238 0.265254 0.265252 0.265257 0.26525 0.265233 0.265241 0.265236 0.265249 0.265224 0.26524 0.265246 0.265249 0.265232 0.265252 0.265242 0.265253 0.265243 0.26523 0.265229 0.265246 0.265255 0.260913 0.228729 0.225004 0.224608 0.224351 0.224093 0.224106 0.224254 0.224455 0.225098 0.249183 0.265238 0.265226 0.265246 0.265224 0.265243 0.265228 0.265236 0.26526 0.265242 0.265236 0.245687 0.240242 0.239029 0.238124 0.237318 0.236837 0.236376 0.235906 0.235572 0.235293 0.234985 0.234676 0.234415 0.234266 0.234126 0.233985 0.233842 0.233704 0.233612 0.233532 0.233456 0.233377 0.2333 0.233232 0.233223 0.233224 0.233224 0.233224 0.233224 0.233241 0.2333 0.23337 0.23344 0.233512 0.233584 0.233656 0.233776 0.233918 0.23406 0.2342 0.234345 0.234488 0.23467 0.234886 0.235102 0.235322 0.235542 0.23576 0.23603 0.236328 0.236639 0.236945 0.237255 0.237593 0.237997 0.238413 0.238829 0.239248 0.239737 0.240304 0.240867 0.241441 0.242133 0.242932 0.24375 0.244804 0.246064 0.248644 0.265249 0.265246 0.265244 0.265226 0.265249 0.265242 0.265242 0.265247 0.265247 0.265248 0.265243 0.265228 0.265236 0.265231 0.265238 0.26524 0.265245 0.265252 0.265236 0.265246 0.265236 0.26524 0.265254 0.265236 0.265252 0.265244 0.265236 0.265254 0.265235 0.265236 0.26525 0.265246 0.265258 0.265247 0.265256 0.265247 0.265231 0.265238 0.265244 0.265239 0.265253 0.265246 0.265233 0.265247 0.265238 0.265235 0.265265 0.26523 0.265237 0.265232 0.26524 0.265257 0.265244 0.265245 0.265251 0.265239 0.265246 0.265227 0.265264 0.265257 0.26523 0.265244 0.265231 0.265263 0.26524 0.265258 0.265268 0.265231 0.26525 0.265253 0.265255 0.265246 0.265245 0.26523 0.265251 0.265249 0.265244 0.265231 0.265238 0.265262 0.265244 0.265233 0.265232 0.265249 0.265232 0.265222 0.265217 0.265241 0.265243 0.265248 0.265266 0.26525 0.265263 0.265223 0.265239 0.265241 0.265245 0.265253 0.265233 0.265242 0.265235 0.265229 0.265228 0.265242 0.265261 0.265253 0.265264 0.265236 0.265245 0.265234 0.265241 0.265252 0.265243 0.265246 0.265244 0.265252 0.265245 0.264946 0.262935 0.260882 0.259823 0.258853 0.257897 0.256959 0.256217 0.255521 0.254825 0.254141 0.253499 0.253027 0.252647 0.252295 0.251932 0.251587 0.251244 0.250887 0.250576 0.250287 0.250008 0.249729 0.249443 0.249166 0.248894 0.248613 0.248357 0.248138 0.247916 0.247698 0.24748 0.24726 0.247042 0.246824 0.246614 0.246441 0.246276 0.24611 0.245941 0.245777 0.245611 0.245447 0.245278 0.245128 0.245014 0.244898 0.244776 0.24466 0.244541 0.244428 0.244302 0.244179 0.244058 0.243973 0.243885 0.243798 0.243706 0.243617 0.243522 0.243427 0.243325 0.243239 0.243199 0.243159 0.243125 0.243082 0.243042 0.243001 0.242962 0.242923 0.24289 0.242913 0.242946 0.242975 0.243 0.243026 0.243057 0.24308 0.243112 0.243152 0.243245 0.243337 0.243431 0.243523 0.243615 0.243702 0.243785 0.243868 0.243988 0.244128 0.244262 0.24439 0.244508 0.244624 0.244745 0.244859 0.245007 0.245181 0.245361 0.24554 0.245713 0.245891 0.246065 0.246246 0.246462 0.246707 0.246959 0.247209 0.247463 0.247711 0.247958 0.248233 0.248571 0.248904 0.24924 0.249581 0.249921 0.250262 0.250683 0.251128 0.251587 0.252033 0.252496 0.25301 0.253927 0.255187 0.256678 0.259193 0.264752 0.265243 0.265237 0.265255 0.265258 0.265236 0.26524 0.265252 0.26523 0.265231 0.26525 0.265232 0.265233 0.265251 0.265238 0.265242 0.26524 0.265243 0.265246 0.265261 0.265253 0.265232 0.265234 0.265238 0.265221 0.26525 0.265234 0.265241 0.265248 0.265233 0.265244 0.265259 0.265243 0.265264 0.265244 0.265241 0.265254 0.265225 0.265249 0.265258 0.265244 0.265249 0.265237 0.265247 0.265231 0.265226 0.265261 0.265225 0.265229 0.265263 0.265228 0.26525 0.265241 0.265239 0.265236 0.265224 0.26525 0.265262 0.265243 0.265239 0.265252 0.265218 0.26526 0.265236 0.265245 0.265259 0.265242 0.265237 0.265233 0.265253 0.265255 0.265234 0.26524 0.265238 0.265243 0.265233 0.265245 0.265239 0.265222 0.265232 0.265231 0.265238 0.265258 0.26523 0.265242 0.265248 0.265248 0.265238 0.265236 0.265233 0.265246 0.265243 0.265226 0.265223 0.265242 0.265243 0.265245 0.26524 0.265258 0.265252 0.265238 0.265247 0.265234 0.265241 0.265239 0.265254 0.265244 0.265244 0.265237 0.265242 0.265258 0.265243 0.265254 0.265249 0.26525 0.265255 0.265247 0.265238 0.265234 0.265255 0.265256 0.265247 0.265244 0.265254 0.265226 0.265241 0.265262 0.265239 0.265257 0.265252 0.265228 0.265252 0.265238 0.265258 0.265244 0.26525 0.26526 0.265231 0.265232 0.265246 0.265229 0.265228 0.265247 0.265264 0.265257 0.265245 0.265235 0.265235 0.265236 0.265213 0.265238 0.265226 0.265247 0.265256 0.265254 0.265226 0.265261 0.265229 0.265244 0.265263 0.265231 0.265229 0.265241 0.265228 0.265255 0.265244 0.265237 0.26526 0.265225
0.263532 0.263545 0.26355 0.263523 0.263543 0.263542 0.263537 0.263536 0.263553 0.263537 0.263542 0.263557 0.263524 0.263524 0.263537 0.263527 0.263537 0.263539 0.263566 0.26356 0.263551 0.263517 0.26353 0.26353 0.263526 0.263543 0.26354 0.263528 0.263507 0.263537 0.263542 0.263532 0.26354 0.263541 0.263523 0.263532 0.263526 0.263558 0.263541 0.263554 0.263527 0.263541 0.263529 0.263539 0.263543 0.263532 0.263531 0.263515 0.263565 0.263546 0.263538 0.263519 0.263559 0.263534 0.263553 0.263554 0.263534 0.263548 0.263541 0.263533 0.263528 0.263545 0.263543 0.263545 0.263524 0.263531 0.263527 0.263533 0.263554 0.263531 0.263535 0.263528 0.26354 0.263546 0.263561 0.26355 0.263543 0.263518 0.263545 0.263558 0.263525 0.263553 0.263539 0.263539 0.263529 0.26353 0.263542 0.263534 0.263552 0.263555 0.263515 0.263531 0.263531 0.263545 0.263536 0.263554 0.263539 0.263546 0.263536 0.263541 0.263531 0.263548 0.263543 0.263538 0.263564 0.263552 0.263533 0.263522 0.263523 0.263539 0.263517 0.263532 0.263534 0.263546 0.263571 0.263535 0.263539 0.263529 0.263537 0.263551 0.263528 0.263538 0.263555 0.26355 0.263538 0.263515 0.263537 0.263553 0.263544 0.263544 0.263533 0.263535 0.263524 0.263534 0.263537 0.263528 0.263532 0.253089 0.226034 0.224915 0.224615 0.224342 0.224219 0.224388 0.224573 0.22488 0.226899 0.257857 0.263553 0.263523 0.263555 0.263546 0.263551 0.263532 0.263542 0.26353 0.263527 0.24544 0.240264 0.239036 0.238111 0.23722 0.236753 0.236288 0.235826 0.235506 0.235244 0.234972 0.234679 0.234426 0.234267 0.234124 0.233983 0.233841 0.233703 0.233612 0.233533 0.233456 0.233377 0.233302 0.233232 0.233223 0.233224 0.233224 0.233224 0.233224 0.233242 0.233299 0.233371 0.233441 0.233512 0.233585 0.233656 0.233775 0.233917 0.234061 0.234203 0.234345 0.234489 0.234668 0.234884 0.235102 0.235323 0.235539 0.23576 0.236024 0.236333 0.236638 0.236946 0.237251 0.237587 0.238001 0.238412 0.238831 0.239248 0.239731 0.240302 0.24088 0.241449 0.242136 0.242944 0.243742 0.244799 0.246062 0.248509 0.263537 0.263537 0.26353 0.263568 0.263557 0.263532 0.263507 0.263531 0.263531 0.263544 0.263544 0.263557 0.263541 0.263547 0.263543 0.263537 0.263551 0.263535 0.263531 0.263538 0.263524 0.263534 0.263553 0.263548 0.263554 0.26354 0.263539 0.263544 0.263543 0.263529 0.263523 0.263541 0.263533 0.263534 0.263534 0.263529 0.263551 0.26355 0.263567 0.263517 0.263518 0.263541 0.263545 0.263546 0.263542 0.263545 0.263551 0.263535 0.263547 0.263541 0.263528 0.263547 0.26354 0.263535 0.263539 0.263534 0.263532 0.263528 0.263556 0.263536 0.263518 0.263549 0.263516 0.26353 0.263539 0.263549 0.26355 0.263545 0.263535 0.263532 0.263533 0.263543 0.263537 0.263532 0.263528 0.263542 0.263543 0.263536 0.263547 0.263529 0.263563 0.263521 0.263539 0.26353 0.263529 0.263535 0.263536 0.263553 0.263543 0.263564 0.263533 0.263528 0.263522 0.263546 0.263528 0.263552 0.263534 0.263545 0.263553 0.263549 0.263525 0.263534 0.263521 0.263542 0.263526 0.263533 0.263534 0.263532 0.26354 0.263536 0.263542 0.263537 0.263509 0.26353 0.263543 0.263544 0.263533 0.263539 0.263532 0.262522 0.260439 0.259192 0.258232 0.257279 0.256489 0.255779 0.255083 0.254386 0.253695 0.253093 0.252571 0.252064 0.251614 0.251206 0.250846 0.250507 0.25021 0.249935 0.249651 0.249373 0.249087 0.248817 0.248534 0.248265 0.24802 0.247806 0.247589 0.247368 0.247149 0.246936 0.246714 0.246503 0.246293 0.24612 0.245963 0.245794 0.245633 0.245469 0.245301 0.245141 0.244969 0.244824 0.244712 0.244596 0.244476 0.244361 0.244244 0.244129 0.244009 0.243895 0.243794 0.243725 0.24365 0.243577 0.243508 0.243439 0.243366 0.243296 0.243223 0.243165 0.243134 0.24311 0.243085 0.243056 0.24303 0.243003 0.242974 0.242949 0.242929 0.242946 0.242965 0.242982 0.243002 0.24302 0.243037 0.243054 0.243072 0.2431 0.243162 0.243229 0.243298 0.243363 0.24343 0.243493 0.243557 0.243626 0.243714 0.24383 0.243949 0.244064 0.244179 0.244303 0.244417 0.244538 0.244666 0.244833 0.245008 0.245186 0.245359 0.245535 0.245718 0.245893 0.246091 0.246326 0.246578 0.246826 0.24707 0.247318 0.247563 0.247825 0.248136 0.248472 0.248802 0.249134 0.249478 0.249816 0.250171 0.250618 0.251069 0.251598 0.252273 0.253147 0.254395 0.25569 0.257479 0.260748 0.263537 0.263574 0.263528 0.263525 0.263536 0.263526 0.263512 0.263537 0.263541 0.263533 0.263547 0.26356 0.263531 0.263549 0.263539 0.263532 0.26355 0.263547 0.26355 0.263524 0.263534 0.263531 0.263523 0.263538 0.263556 0.263522 0.26354 0.263541 0.263526 0.263547 0.263527 0.263528 0.263539 0.263532 0.263542 0.263533 0.263525 0.263549 0.26355 0.263549 0.263548 0.263545 0.263553 0.26353 0.26354 0.263537 0.263536 0.26353 0.263551 0.26353 0.263546 0.263522 0.263529 0.263547 0.263521 0.263527 0.263544 0.263529 0.263553 0.263522 0.263551 0.263544 0.26353 0.263535 0.263522 0.263543 0.263524 0.263557 0.263538 0.26353 0.263523 0.263521 0.263538 0.263536 0.263525 0.263549 0.26354 0.26353 0.263545 0.263548 0.263532 0.263539 0.263544 0.263529 0.263537 0.263555 0.263537 0.26355 0.263519 0.263524 0.263541 0.263538 0.263527 0.263552 0.263543 0.263544 0.263529 0.263539 0.263563 0.263539 0.263527 0.263526 0.263537 0.263535 0.26354 0.263541 0.263536 0.263529 0.263538 0.263547 0.263524 0.26354 0.263524 0.263551 0.263528 0.263533 0.263539 0.263521 0.263529 0.263542 0.263554 0.263527 0.263538 0.263532 0.263548 0.263555 0.263556 0.263533 0.263542 0.263539 0.263514 0.26354 0.26353 0.263546 0.263541 0.263543 0.263531 0.26353 0.263544 0.263537 0.263528 0.263529 0.263552 0.263561 0.263551 0.263543 0.263544 0.263517 0.263529 0.263522 0.26355 0.263539 0.263537 0.263526 0.263541 0.263544 0.26354 0.263551 0.263532 0.263534 0.263543 0.263544 0.263539 0.263532 0.263531 0.263555 0.263532 0.263544 0.263536
0.261847 0.261864 0.261849 0.261848 0.261856 0.261878 0.261845 0.261841 0.261847 0.261859 0.261857 0.261851 0.261851 0.261865 0.261866 0.261878 0.261857 0.261839 0.261847 0.261845 0.261859 0.261846 0.261845 0.261852 0.261836 0.261844 0.261844 0.261861 0.261865 0.261862 0.261853 0.261859 0.26185 0.261838 0.261867 0.261862 0.261863 0.261863 0.261865 0.261862 0.261853 0.26185 0.261868 0.261865 0.261859 0.261853 0.261865 0.261829 0.261845 0.261841 0.261864 0.261839 0.261865 0.261848 0.261852 0.261851 0.261836 0.261842 0.261864 0.261865 0.261845 0.261865 0.261854 0.261874 0.261853 0.261842 0.26185 0.261855 0.261862 0.261874 0.261841 0.261858 0.261836 0.26185 0.261855 0.261839 0.261867 0.261857 0.261842 0.261855 0.261849 0.261844 0.261855 0.261848 0.261845 0.261869 0.26185 0.261871 0.261852 0.261839 0.261845 0.261856 0.261836 0.261873 0.261863 0.261856 0.261867 0.261831 0.261859 0.261843 0.261869 0.261831 0.261869 0.261832 0.261858 0.26186 0.261868 0.261849 0.261854 0.261863 0.261862 0.26186 0.261862 0.26186 0.261846 0.261856 0.261835 0.261866 0.261825 0.261856 0.261843 0.261863 0.261878 0.261877 0.261865 0.261821 0.261846 0.261851 0.261849 0.261864 0.261847 0.261845 0.26185 0.261853 0.261853 0.261851 0.261847 0.261876 0.24491 0.225743 0.22512 0.224837 0.224566 0.22455 0.224732 0.224925 0.225358 0.233251 0.259451 0.261858 0.261853 0.26184 0.261851 0.261829 0.261842 0.261855 0.26185 0.245297 0.240256 0.239042 0.238094 0.237079 0.236623 0.236199 0.235748 0.235442 0.235179 0.234917 0.23465 0.234413 0.234266 0.234125 0.233983 0.233841 0.233705 0.233611 0.233533 0.233456 0.233376 0.2333 0.233232 0.233223 0.233224 0.233224 0.233224 0.233224 0.233241 0.233299 0.23337 0.23344 0.233513 0.233584 0.233657 0.233775 0.233917 0.23406 0.234203 0.234347 0.234489 0.234669 0.234885 0.235101 0.235319 0.235537 0.235759 0.236028 0.236332 0.236638 0.236946 0.237256 0.237588 0.238 0.238418 0.238829 0.23925 0.239731 0.240303 0.240864 0.241447 0.242134 0.242946 0.243755 0.244804 0.246063 0.248425 0.261844 0.261854 0.261869 0.261852 0.261859 0.26185 0.261832 0.261848 0.261847 0.261844 0.261872 0.261835 0.261833 0.261876 0.261828 0.261847 0.261879 0.261851 0.261855 0.261842 0.261854 0.261855 0.261887 0.261854 0.261854 0.261856 0.261852 0.261844 0.261857 0.261856 0.26185 0.261857 0.26184 0.261875 0.261845 0.261868 0.261881 0.261827 0.261849 0.261841 0.261839 0.261846 0.261868 0.261855 0.26186 0.261861 0.261823 0.261832 0.261849 0.261844 0.261849 0.261853 0.261852 0.261848 0.261857 0.261844 0.261855 0.261855 0.261865 0.261833 0.261845 0.26186 0.261832 0.261871 0.261835 0.261873 0.261853 0.261845 0.261843 0.261849 0.261853 0.261867 0.261846 0.261846 0.261856 0.261853 0.261862 0.261848 0.261885 0.261865 0.261846 0.261861 0.261857 0.26186 0.261863 0.261863 0.261839 0.261834 0.261848 0.261845 0.261863 0.261848 0.261836 0.261861 0.261857 0.261856 0.261855 0.261859 0.26186 0.261864 0.261843 0.261846 0.261858 0.261842 0.26186 0.261862 0.261852 0.261853 0.261847 0.261837 0.261848 0.261835 0.261842 0.261842 0.261861 0.261845 0.261862 0.261846 0.26185 0.261846 0.261783 0.260708 0.258843 0.257595 0.256753 0.256046 0.255347 0.254645 0.25396 0.253323 0.252793 0.252263 0.251741 0.251212 0.250701 0.250246 0.249894 0.249574 0.249295 0.249017 0.248735 0.248463 0.248186 0.247919 0.247691 0.247478 0.247262 0.247039 0.246819 0.246601 0.246388 0.246171 0.245984 0.245813 0.245648 0.245485 0.24532 0.245158 0.244993 0.244828 0.244669 0.244527 0.244407 0.244294 0.24418 0.244067 0.243946 0.243829 0.243713 0.243595 0.243498 0.24343 0.243358 0.243283 0.243216 0.243147 0.243074 0.243004 0.242931 0.242873 0.242849 0.242818 0.242791 0.242764 0.242739 0.242712 0.242683 0.242658 0.242636 0.24265 0.242668 0.242685 0.242703 0.242722 0.242741 0.242759 0.242775 0.242798 0.242856 0.242926 0.242985 0.243056 0.243122 0.243187 0.243252 0.243316 0.24339 0.243503 0.243625 0.243739 0.243858 0.243973 0.24409 0.244211 0.244328 0.244482 0.244659 0.244832 0.245013 0.245187 0.245369 0.245545 0.245721 0.245943 0.246187 0.246439 0.246688 0.246924 0.247176 0.247428 0.247704 0.248037 0.248356 0.248704 0.249039 0.249366 0.249734 0.250261 0.250998 0.251786 0.252593 0.253588 0.254886 0.256215 0.258705 0.261667 0.261848 0.261864 0.261856 0.261835 0.261861 0.261856 0.26184 0.261858 0.261862 0.26186 0.261849 0.261862 0.261855 0.261847 0.261845 0.261845 0.261853 0.261864 0.261853 0.261847 0.261854 0.261841 0.261854 0.261863 0.261852 0.261841 0.261862 0.261853 0.261847 0.261865 0.261859 0.261855 0.261843 0.261853 0.261842 0.261856 0.261847 0.261853 0.261837 0.261854 0.261853 0.261862 0.261866 0.261867 0.261878 0.261847 0.261849 0.261864 0.261852 0.261851 0.26184 0.261855 0.261856 0.26184 0.26187 0.261851 0.261852 0.261855 0.261822 0.261851 0.26186 0.261853 0.261865 0.26184 0.261842 0.261853 0.261853 0.261867 0.261848 0.261869 0.261879 0.261837 0.261856 0.26184 0.261862 0.261868 0.261856 0.261861 0.261862 0.261852 0.261864 0.261846 0.261849 0.261874 0.261871 0.261844 0.261861 0.261858 0.261844 0.261856 0.261852 0.261846 0.261853 0.261857 0.261847 0.261855 0.26186 0.261854 0.261847 0.261844 0.26185 0.261844 0.261864 0.261859 0.261851 0.261836 0.261841 0.26184 0.261853 0.261833 0.261851 0.261854 0.261841 0.261857 0.261855 0.261838 0.261849 0.261852 0.26187 0.261837 0.261861 0.261869 0.261853 0.261859 0.261837 0.261852 0.261869 0.261877 0.261847 0.261872 0.261857 0.261855 0.261867 0.261854 0.261844 0.261843 0.261851 0.261849 0.261841 0.261851 0.261845 0.261859 0.261861 0.261826 0.261877 0.261851 0.261855 0.261857 0.261853 0.261862 0.261876 0.261848 0.261841 0.261859 0.261866 0.261861 0.261869 0.261841 0.26185 0.261848 0.261855 0.261855 0.261869 0.261853 0.261858 0.26184 0.261855 0.261847 0.261867
