0 0 0 0 0 0 0 0 0 0 0 0 0 0 0 0 0 0 0 0 0 0 0 0 0 0 0 0 0 0 0 0 0 0 0 0 0 0.0318074 0.212169 0.307766 0.311881 0.311528 0.311498 0.311202 0.310965 0.310818 0.310594 0.310316 0.310192 0.309977 0.3097 0.309507 0.309255 0.309048 0.308911 0.308647 0.30847 0.308257 0.308144 0.307874 0.307674 0.30757 0.307371 0.307133 0.306851 0.306679 0.306489 0.306272 0.306065 0.305965 0.30577 0.305552 0.305439 0.305119 0.304912 0.304755 0.304589 0.304319 0.304161 0.304049 0.303845 0.303635 0.303527 0.303239 0.303077 0.302929 0.302632 0.302538 0.302371 0.302115 0.301973 0.301697 0.301541 0.301464 0.301226 0.300984 0.300942 0.300768 0.300589 0.300423 0.300109 0.300019 0.299863 0.299625 0.299607 0.299291 0.299201 0.299009 0.298826 0.298683 0.298468 0.298305 0.298152 0.297936 0.297853 0.297639 0.297437 0.297343 0.297137 0.296973 0.296783 0.29666 0.296592 0.29636 0.296212 0.296151 0.29587 0.295689 0.295596 0.295463 0.295299 0.295026 0.29495 0.294818 0.294635 0.294554 0.294436 0.294133 0.294027 0.293897 0.293795 0.293762 0.29345 0.293412 0.293205 0.293151 0.292998 0.292781 0.292552 0.292485 0.29239 0.292307 0.292077 0.291897 0.291857 0.291731 0.291582 0.291395 0.291328 0.291123 0.290995 0.290888 0.290813 0.290688 0.29049 0.290388 0.290255 0.290072 0.289964 0.289953 0.289753 0.289665 0.289496 0.289447 0.28922 0.289169 0.289096 0.288936 0.28879 0.288739 0.288555 0.288441 0.288358 0.288205 0.288114 0.287958 0.287955 0.287792 0.287677 0.287564 0.287457 0.287343 0.287222 0.287103 0.287009 0.286886 0.286925 0.286757 0.286568 0.286464 0.286405 0.286349 0.286195 0.286122 0.286027 0.285906 0.285832 0.285784 0.285627 0.259418 0.237607 0.236943 0.236513 0.236169 0.235846 0.235667 0.235748 0.235881 0.255608 0.284646 0.284645 0.284438 0.28442 0.284382 0.284262 0.261935 0.253757 0.252541 0.251433 0.25052 0.249683 0.248933 0.248419 0.247951 0.247499 0.247063 0.246688 0.246323 0.245959 0.245613 0.245309 0.245107 0.244917 0.244715 0.244527 0.244323 0.244172 0.244038 0.243895 0.243776 0.243638 0.243513 0.243447 0.243403 0.243347 0.243302 0.243258 0.243215 0.243218 0.243252 0.243283 0.243311 0.243347 0.243387 0.243461 0.24358 0.243691 0.243806 0.243924 0.244037 0.244197 0.244416 0.244628 0.24484 0.245048 0.245266 0.245575 0.24591 0.24623 0.246539 0.246884 0.247353 0.247787 0.248284 0.24876 0.249445 0.250091 0.250833 0.251747 0.252766 0.254324 0.264098 0.280693 0.280677 0.280666 0.280645 0.280635 0.280564 0.280684 0.280636 0.280606 0.280474 0.280565 0.280528 0.280492 0.280526 0.28051 0.280513 0.280368 0.28045 0.280455 0.280497 0.280561 0.280438 0.280442 0.280427 0.280386 0.280317 0.280484 0.280485 0.280426 0.280398 0.280423 0.280379 0.280462 0.280381 0.280427 0.28049 0.280489 0.280464 0.280461 0.28048 0.280439 0.280508 0.280506 0.280504 0.280512 0.280606 0.280539 0.280574 0.280578 0.280668 0.280634 0.280667 0.28068 0.280615 0.280729 0.280767 0.280785 0.280796 0.280785 0.280837 0.280836 0.280892 0.280849 0.280969 0.280963 0.281065 0.281112 0.281059 0.281069 0.281152 0.281246 0.28121 0.281289 0.281293 0.281346 0.281359 0.281432 0.281443 0.281513 0.281526 0.281651 0.281591 0.281657 0.281711 0.281731 0.281785 0.281839 0.281938 0.282008 0.281993 0.282092 0.282172 0.282176 0.282245 0.282255 0.282357 0.282471 0.282474 0.282476 0.282614 0.28268 0.28265 0.282803 0.282821 0.282872 0.282966 0.283035 0.283081 0.283213 0.281947 0.279187 0.277615 0.2764 0.275292 0.274264 0.273292 0.272531 0.271757 0.27114 0.27058 0.270144 0.269734 0.269355 0.269026 0.26867 0.268357 0.267996 0.267658 0.267331 0.267056 0.266789 0.266533 0.26627 0.266006 0.265746 0.265508 0.265248 0.26505 0.264847 0.264649 0.264468 0.26427 0.264069 0.263902 0.263716 0.263542 0.263386 0.263203 0.263006 0.262771 0.262572 0.262296 0.262073 0.261842 0.261658 0.261479 0.261342 0.261185 0.261004 0.260849 0.260702 0.260543 0.260405 0.260314 0.260261 0.260143 0.260084 0.260006 0.25993 0.259867 0.259779 0.259702 0.25968 0.259694 0.259673 0.259684 0.259683 0.259662 0.259679 0.259661 0.259645 0.259711 0.259793 0.259843 0.259895 0.259981 0.260052 0.260134 0.260206 0.260254 0.260349 0.260492 0.260642 0.260764 0.26094 0.261084 0.26128 0.261401 0.26156 0.261689 0.261871 0.262114 0.262388 0.262638 0.262903 0.263149 0.263376 0.263639 0.263872 0.264192 0.26456 0.264945 0.265291 0.265673 0.266007 0.266372 0.266786 0.267251 0.267794 0.268316 0.268835 0.26931 0.26991 0.270609 0.271362 0.271952 0.272571 0.273145 0.273733 0.274305 0.274869 0.275404 0.275972 0.276573 0.277319 0.278071 0.278787 0.279507 0.280351 0.281283 0.282293 0.283254 0.284427 0.28802 0.29963 0.29985 0.300013 0.300168 0.300332 0.30059 0.300759 0.300871 0.301077 0.301248 0.301454 0.301632 0.30177 0.30204 0.302078 0.302317 0.302521 0.30272 0.302965 0.303071 0.303232 0.303401 0.3037 0.303855 0.304018 0.304203 0.304311 0.304537 0.304748 0.304932 0.305164 0.305363 0.305555 0.30567 0.305912 0.306152 0.306262 0.306531 0.306697 0.306925 0.307079 0.307293 0.307478 0.307698 0.307878 0.308053 0.308372 0.308484 0.308762 0.308953 0.309094 0.309334 0.309483 0.309728 0.309851 0.310108 0.310347 0.310482 0.310791 0.310969 0.311156 0.311458 0.311571 0.311825 0.312018 0.312275 0.312514 0.312748 0.312881 0.313152 0.31335 0.313542 0.313775 0.313982 0.314176 0.314445 0.31458 0.314895 0.31515 0.315294 0.315519 0.315807 0.315988 0.316244 0.316434 0.316785 0.316925 0.317134 0.317311 0.3175 0.317752 0.318075 0.318285 0.318506 0.318725 0.31892 0.31913 0.319475 0.319672 0.319946 0.320155 0.320458 0.320646 0.320854
0 0 0 0 0 0 0 0 0 0 0 0 0 0 0 0 0 0 0 0 0 0 0 0 0 0 0 0 0 0 0 0 0 0 0 0.0253133 0.177332 0.304189 0.310319 0.310142 0.309852 0.309619 0.309473 0.309291 0.30912 0.308797 0.308667 0.308454 0.308214 0.308069 0.307782 0.307628 0.30735 0.307248 0.307065 0.306771 0.306629 0.306353 0.306198 0.305966 0.305726 0.305657 0.305516 0.305291 0.304958 0.304899 0.304576 0.304387 0.304231 0.304032 0.303772 0.303709 0.303406 0.303236 0.302975 0.302848 0.302623 0.302441 0.302353 0.302078 0.301922 0.301786 0.301601 0.30136 0.301151 0.301 0.300758 0.300602 0.3005 0.300273 0.30018 0.299965 0.299736 0.29955 0.299377 0.299131 0.29902 0.298857 0.298686 0.298528 0.298331 0.298116 0.297974 0.297786 0.297674 0.297509 0.2973 0.297194 0.296926 0.296824 0.296631 0.296497 0.296294 0.296179 0.295917 0.295808 0.295665 0.295443 0.295351 0.295204 0.295004 0.294823 0.294666 0.294493 0.294335 0.294234 0.294087 0.293923 0.293786 0.293594 0.293422 0.293295 0.293181 0.293026 0.292872 0.292723 0.29258 0.29239 0.292293 0.292122 0.291975 0.291803 0.291741 0.291564 0.29141 0.291223 0.291091 0.291007 0.290828 0.290715 0.290541 0.290473 0.290299 0.290168 0.290063 0.289892 0.289718 0.289616 0.289514 0.289421 0.289257 0.289146 0.288967 0.288842 0.288819 0.288503 0.288511 0.288411 0.288247 0.288155 0.287926 0.287827 0.287763 0.28764 0.287508 0.287377 0.28723 0.287147 0.286966 0.286905 0.286768 0.286747 0.286628 0.286382 0.28642 0.286225 0.286088 0.286055 0.285897 0.285732 0.285711 0.285563 0.285481 0.285325 0.28527 0.285199 0.285157 0.285005 0.284882 0.284755 0.284685 0.284599 0.284444 0.284279 0.284217 0.284139 0.284094 0.28401 0.283883 0.271716 0.23805 0.237372 0.236836 0.236489 0.23617 0.235896 0.235956 0.236045 0.240423 0.282109 0.282864 0.282761 0.282682 0.282641 0.28264 0.264909 0.253895 0.252624 0.251502 0.250658 0.249792 0.249067 0.248573 0.248102 0.247627 0.24716 0.246791 0.246436 0.246078 0.245706 0.24543 0.245217 0.245026 0.244825 0.24463 0.244444 0.244283 0.244147 0.244013 0.243883 0.243752 0.243625 0.243559 0.243513 0.243463 0.243416 0.243367 0.24333 0.243333 0.243355 0.243391 0.243424 0.243458 0.243495 0.243565 0.243682 0.2438 0.243915 0.244041 0.244151 0.244319 0.244528 0.244742 0.244942 0.245158 0.245398 0.245685 0.246028 0.246318 0.246645 0.247006 0.247452 0.247926 0.248395 0.248876 0.249548 0.250192 0.250899 0.251882 0.252931 0.254407 0.264199 0.279015 0.279086 0.279041 0.278944 0.278892 0.278881 0.278865 0.278844 0.278897 0.278823 0.27887 0.278819 0.278831 0.278742 0.278808 0.278808 0.278815 0.278716 0.278695 0.278745 0.278709 0.278798 0.278672 0.278717 0.278702 0.278665 0.278633 0.278749 0.278718 0.278696 0.278751 0.278684 0.278638 0.27877 0.278718 0.278798 0.278772 0.278777 0.278717 0.278738 0.278767 0.278808 0.278776 0.278856 0.278883 0.278791 0.2789 0.278897 0.278882 0.278891 0.278932 0.278944 0.278884 0.278942 0.279032 0.27903 0.279002 0.279038 0.279108 0.279148 0.279119 0.279175 0.279262 0.279264 0.279275 0.27926 0.279353 0.279384 0.279392 0.279454 0.279423 0.279478 0.279552 0.279577 0.279651 0.279658 0.279722 0.279788 0.27974 0.279799 0.27981 0.279946 0.280049 0.280051 0.280061 0.280077 0.280098 0.280186 0.280247 0.28025 0.28031 0.280385 0.280453 0.280505 0.280558 0.280574 0.280634 0.280707 0.280807 0.280814 0.280846 0.281019 0.281052 0.28106 0.281207 0.28123 0.281299 0.281372 0.281385 0.281512 0.281067 0.278713 0.276816 0.275823 0.27478 0.273773 0.272889 0.272152 0.271378 0.270706 0.269968 0.26949 0.269078 0.268733 0.268384 0.26804 0.267721 0.267354 0.26706 0.266781 0.266519 0.266252 0.266001 0.265734 0.265491 0.26525 0.265 0.264806 0.264614 0.264425 0.264224 0.264044 0.26386 0.263669 0.263494 0.263339 0.263227 0.263089 0.262961 0.262822 0.262698 0.262577 0.262415 0.262266 0.262138 0.262009 0.261868 0.26174 0.261568 0.2614 0.261238 0.26108 0.260978 0.260879 0.260787 0.260704 0.26062 0.260552 0.260462 0.260373 0.260324 0.260246 0.260223 0.260238 0.26023 0.260209 0.260227 0.260222 0.260219 0.260197 0.260221 0.260219 0.260303 0.260378 0.26045 0.260536 0.260601 0.260646 0.260748 0.26082 0.260881 0.261028 0.2612 0.261332 0.261483 0.261646 0.26184 0.261969 0.262111 0.262275 0.262515 0.262759 0.262974 0.263241 0.263467 0.263745 0.263973 0.264211 0.264529 0.26487 0.265239 0.265579 0.265958 0.266313 0.266665 0.26709 0.267574 0.268088 0.268523 0.269079 0.269523 0.269995 0.27055 0.271041 0.27151 0.271935 0.272393 0.272826 0.273338 0.273895 0.27445 0.274998 0.275562 0.276116 0.276783 0.277495 0.278224 0.278972 0.279727 0.280542 0.281545 0.282573 0.283577 0.291739 0.297846 0.297984 0.29811 0.298358 0.29849 0.298687 0.298852 0.298972 0.299119 0.299368 0.29962 0.299745 0.299939 0.300155 0.300227 0.30043 0.300639 0.300883 0.301045 0.301169 0.301322 0.301488 0.30168 0.301937 0.302113 0.302232 0.302522 0.302745 0.302838 0.303072 0.303284 0.303405 0.303666 0.303806 0.304048 0.304189 0.304425 0.30464 0.304822 0.304903 0.305172 0.305417 0.305673 0.305813 0.30597 0.306227 0.306407 0.306582 0.306796 0.307033 0.307223 0.307357 0.307631 0.307844 0.308151 0.308159 0.308495 0.308672 0.308853 0.309028 0.309195 0.309482 0.309703 0.310006 0.310065 0.310374 0.310523 0.310764 0.311032 0.311262 0.311476 0.311641 0.311825 0.312094 0.312225 0.312455 0.312725 0.312887 0.313102 0.313435 0.313697 0.313838 0.31401 0.314288 0.314556 0.314681 0.314913 0.315062 0.315427 0.315568 0.315788 0.316143 0.31623 0.316528 0.316783 0.316952 0.31724 0.317546 0.317703 0.317925 0.318104 0.318339 0.318599 0.318858
0 0 0 0 0 0 0 0 0 0 0 0 0 0 0 0 0 0 0 0 0 0 0 0 0 0 0 0 0 0 0 0 0 0.00419707 0.142847 0.296379 0.308769 0.308607 0.308446 0.308266 0.308004 0.307708 0.307599 0.307388 0.307078 0.306921 0.306764 0.306563 0.306318 0.306227 0.305949 0.305654 0.305496 0.305305 0.305111 0.304915 0.304735 0.304523 0.304351 0.30408 0.303866 0.303673 0.303439 0.303365 0.303174 0.302957 0.302772 0.302558 0.302397 0.302211 0.301949 0.301766 0.301631 0.301442 0.301145 0.300978 0.300776 0.300599 0.300464 0.300264 0.300005 0.299816 0.299732 0.299531 0.299315 0.299154 0.299009 0.298747 0.298641 0.298428 0.298232 0.298057 0.29804 0.297732 0.297508 0.297347 0.297189 0.297063 0.296825 0.296687 0.296557 0.296387 0.296101 0.29603 0.295838 0.295583 0.295463 0.295364 0.295212 0.295007 0.294973 0.294649 0.294466 0.294367 0.29418 0.293994 0.29391 0.293683 0.293584 0.293402 0.293193 0.293028 0.292908 0.29268 0.292559 0.292395 0.292265 0.29217 0.29204 0.291788 0.291708 0.291494 0.291311 0.291191 0.29106 0.290962 0.290829 0.290631 0.290543 0.290373 0.290124 0.290086 0.289944 0.28982 0.289659 0.289478 0.28938 0.289182 0.289066 0.288937 0.2888 0.288688 0.288485 0.288415 0.288285 0.288117 0.288015 0.287873 0.287791 0.287625 0.287458 0.28735 0.287214 0.287008 0.287015 0.286837 0.286787 0.286599 0.286419 0.286313 0.286158 0.286087 0.286072 0.285889 0.285747 0.285666 0.285535 0.28536 0.285311 0.285109 0.285092 0.284915 0.284886 0.284716 0.284538 0.284535 0.284275 0.284292 0.28411 0.284086 0.284004 0.283872 0.283778 0.283677 0.283564 0.283361 0.283367 0.283221 0.283102 0.282995 0.282989 0.282839 0.282761 0.282638 0.282568 0.282508 0.28232 0.28227 0.282172 0.280027 0.240214 0.237733 0.237167 0.236828 0.236492 0.236192 0.236158 0.236244 0.23658 0.263752 0.281182 0.281073 0.280977 0.280913 0.280786 0.262835 0.254001 0.25274 0.251587 0.250733 0.249942 0.249185 0.248703 0.24822 0.247723 0.247277 0.246915 0.246551 0.246191 0.245839 0.245544 0.245332 0.245143 0.244945 0.244737 0.244542 0.244395 0.244256 0.244128 0.244 0.243867 0.243735 0.243668 0.243616 0.243573 0.243525 0.243478 0.243437 0.243442 0.24347 0.243506 0.243536 0.243575 0.243607 0.243682 0.243794 0.243909 0.244031 0.244151 0.244268 0.244436 0.244636 0.24485 0.245055 0.245269 0.245492 0.245806 0.246137 0.246456 0.246774 0.247128 0.247571 0.248034 0.248479 0.249028 0.24967 0.25033 0.251057 0.251971 0.253039 0.254406 0.26244 0.277348 0.277338 0.277292 0.277303 0.277234 0.277183 0.277223 0.277195 0.27716 0.277184 0.277195 0.277115 0.277162 0.277136 0.277039 0.277047 0.277108 0.27698 0.277131 0.277048 0.277061 0.277063 0.277004 0.277045 0.277011 0.276997 0.277022 0.277069 0.277051 0.277062 0.277009 0.276992 0.276963 0.277074 0.277026 0.277082 0.277058 0.277063 0.277103 0.277008 0.277089 0.277094 0.277103 0.277066 0.277148 0.277159 0.277231 0.277216 0.277145 0.277214 0.277197 0.277259 0.277263 0.277292 0.277336 0.277355 0.27735 0.277354 0.2774 0.277426 0.277443 0.277463 0.277586 0.277571 0.277641 0.277651 0.27766 0.277611 0.277622 0.277688 0.277752 0.277836 0.277823 0.277928 0.277949 0.277931 0.27796 0.277979 0.278037 0.278107 0.278221 0.27833 0.278357 0.278273 0.278322 0.278377 0.278463 0.278602 0.278551 0.27863 0.278669 0.27868 0.278709 0.278769 0.278742 0.278926 0.278996 0.278996 0.27915 0.27918 0.279225 0.279194 0.279295 0.279387 0.279465 0.279546 0.27966 0.279637 0.279703 0.279811 0.279847 0.279881 0.278599 0.276505 0.27527 0.274239 0.273302 0.272549 0.27182 0.271086 0.270347 0.26967 0.269126 0.26862 0.268143 0.267749 0.267396 0.267068 0.266804 0.26653 0.266263 0.265995 0.265715 0.265488 0.265239 0.264965 0.264765 0.264561 0.264377 0.264184 0.264001 0.263806 0.263614 0.263438 0.263257 0.263134 0.262997 0.262866 0.262758 0.262617 0.262492 0.262361 0.262244 0.262132 0.262056 0.261983 0.261903 0.261838 0.261766 0.261682 0.261599 0.2615 0.261409 0.261369 0.261305 0.26123 0.261176 0.261089 0.260981 0.260917 0.260854 0.260788 0.260765 0.260752 0.260756 0.260774 0.260757 0.260752 0.260722 0.260744 0.260727 0.26077 0.260846 0.260913 0.260972 0.261069 0.261149 0.261219 0.261277 0.261355 0.261439 0.261592 0.261773 0.261911 0.262079 0.262227 0.262357 0.262511 0.262688 0.262871 0.263126 0.263382 0.263616 0.263843 0.26407 0.264338 0.264594 0.264838 0.265204 0.265571 0.26588 0.266258 0.266559 0.266958 0.267294 0.267694 0.268096 0.268471 0.268837 0.269184 0.269541 0.269859 0.270287 0.270745 0.271149 0.27159 0.272045 0.272477 0.272908 0.273479 0.274012 0.27457 0.275136 0.275686 0.276309 0.276996 0.277676 0.278441 0.27917 0.279926 0.280838 0.281842 0.28398 0.294679 0.29609 0.29617 0.296346 0.296572 0.296658 0.296775 0.297061 0.297183 0.297391 0.29756 0.297726 0.298014 0.298015 0.298232 0.298431 0.298546 0.298709 0.298989 0.2992 0.29943 0.299579 0.299815 0.299901 0.300059 0.300239 0.300457 0.300704 0.300854 0.301019 0.301268 0.301327 0.301587 0.301745 0.301999 0.302231 0.302366 0.302514 0.302719 0.302912 0.303117 0.303248 0.303493 0.303776 0.303931 0.304172 0.304383 0.304488 0.304716 0.30487 0.305107 0.305342 0.30552 0.305694 0.305956 0.306118 0.306357 0.306552 0.306697 0.30699 0.307216 0.307383 0.307563 0.307803 0.307887 0.308213 0.308441 0.308645 0.308814 0.309014 0.309307 0.309444 0.309747 0.309912 0.310083 0.310332 0.310643 0.310747 0.311049 0.311175 0.311469 0.311661 0.31189 0.312131 0.312368 0.312565 0.312835 0.313068 0.313171 0.313388 0.313705 0.313867 0.3142 0.314347 0.314549 0.314817 0.315068 0.315272 0.315621 0.315753 0.315953 0.316199 0.316425 0.316626 0.316926
0 0 0 0 0 0 0 0 0 0 0 0 0 0 0 0 0 0 0 0 0 0 0 0 0 0 0 0 0 0 0 0.0104438 0.12752 0.282434 0.307433 0.307102 0.306995 0.306753 0.306537 0.306323 0.306145 0.305865 0.305737 0.305469 0.305259 0.305131 0.304833 0.304632 0.304493 0.304213 0.304093 0.303875 0.303641 0.30347 0.303216 0.30301 0.302991 0.302727 0.302418 0.302268 0.301974 0.301811 0.301692 0.301481 0.301379 0.301108 0.300932 0.300716 0.300493 0.300338 0.300144 0.299961 0.299798 0.299613 0.299428 0.29914 0.298996 0.298776 0.298599 0.298458 0.298333 0.298079 0.297898 0.297709 0.297477 0.297388 0.297162 0.297021 0.296928 0.296603 0.296432 0.296333 0.296055 0.295905 0.295768 0.295545 0.295377 0.295153 0.295001 0.294793 0.294725 0.294528 0.294403 0.29421 0.293949 0.293832 0.293701 0.293469 0.293439 0.293239 0.293077 0.292916 0.292686 0.292654 0.292241 0.292189 0.292183 0.291989 0.291841 0.291631 0.291435 0.291176 0.291117 0.290996 0.290797 0.290662 0.290548 0.290399 0.290248 0.290066 0.289944 0.289793 0.289623 0.289454 0.289335 0.289171 0.28899 0.288867 0.288696 0.288584 0.288432 0.28832 0.288141 0.288011 0.28796 0.287772 0.287689 0.287408 0.287218 0.28721 0.287065 0.286978 0.286798 0.286599 0.28655 0.28643 0.28623 0.286079 0.285993 0.285845 0.285733 0.285577 0.285507 0.28537 0.285226 0.285137 0.285031 0.2849 0.284708 0.28466 0.284505 0.284376 0.28432 0.28412 0.284028 0.28392 0.283812 0.283683 0.283559 0.283483 0.283389 0.28322 0.28315 0.283048 0.282859 0.282786 0.282608 0.282538 0.282419 0.282343 0.282209 0.282171 0.282022 0.281932 0.281838 0.281714 0.281582 0.281402 0.281438 0.281347 0.281284 0.281114 0.281113 0.28096 0.28078 0.280772 0.280647 0.28051 0.280512 0.280398 0.258214 0.238223 0.237517 0.23715 0.236842 0.236483 0.236359 0.236439 0.236578 0.238507 0.273611 0.279306 0.279284 0.279155 0.279192 0.262619 0.25407 0.252843 0.251744 0.250787 0.250054 0.24929 0.248797 0.248313 0.247775 0.247323 0.247016 0.246671 0.246304 0.245936 0.245636 0.245456 0.24525 0.245048 0.244854 0.244657 0.244503 0.244367 0.244241 0.244098 0.24398 0.243852 0.243775 0.243735 0.243681 0.243644 0.243586 0.243546 0.243551 0.243588 0.243615 0.243652 0.243685 0.243714 0.243793 0.243901 0.244021 0.24414 0.244263 0.244384 0.24456 0.244759 0.244959 0.245182 0.245386 0.245617 0.245918 0.246235 0.246561 0.246873 0.24725 0.247712 0.248163 0.248613 0.249136 0.249771 0.250433 0.251133 0.252122 0.253146 0.254612 0.264473 0.275627 0.275705 0.275618 0.275615 0.275587 0.275616 0.275505 0.275514 0.275497 0.275504 0.275467 0.275473 0.275416 0.275492 0.27547 0.2754 0.275443 0.275352 0.275402 0.27532 0.275379 0.275362 0.275381 0.275406 0.275345 0.275355 0.275339 0.275399 0.2753 0.275391 0.27532 0.275383 0.275431 0.275411 0.275386 0.275393 0.2754 0.275457 0.275377 0.275459 0.275464 0.275369 0.275449 0.275479 0.275452 0.275465 0.275483 0.275534 0.275514 0.275596 0.27556 0.275551 0.275567 0.275618 0.275666 0.275629 0.275731 0.275814 0.275694 0.27576 0.275729 0.275798 0.275906 0.275903 0.27596 0.27592 0.275921 0.275966 0.276116 0.276061 0.276117 0.276177 0.27622 0.276219 0.27619 0.276294 0.276421 0.276427 0.276445 0.276542 0.276492 0.276502 0.276563 0.276655 0.276727 0.276689 0.276791 0.276795 0.276857 0.276974 0.277036 0.277065 0.27711 0.277112 0.277239 0.277244 0.277345 0.277334 0.277416 0.277454 0.277486 0.277585 0.277626 0.277704 0.27773 0.277812 0.277851 0.278028 0.278027 0.278078 0.278134 0.278238 0.278284 0.278253 0.276839 0.274856 0.273752 0.272938 0.272234 0.271469 0.270794 0.270046 0.269469 0.26892 0.268403 0.267846 0.26732 0.266857 0.266547 0.266268 0.265992 0.265753 0.265486 0.265228 0.264952 0.264729 0.264527 0.264339 0.264154 0.263956 0.263772 0.263578 0.263392 0.263219 0.263054 0.262931 0.262785 0.262656 0.262526 0.262389 0.262275 0.262147 0.262028 0.261921 0.261856 0.261771 0.261715 0.26163 0.261576 0.261501 0.261433 0.261372 0.261314 0.261292 0.261269 0.261247 0.261237 0.26122 0.261197 0.261187 0.261154 0.261145 0.261156 0.261174 0.261178 0.261196 0.26121 0.261228 0.261243 0.261262 0.261253 0.261338 0.261364 0.261459 0.26154 0.261608 0.261678 0.261758 0.261824 0.261894 0.262039 0.262174 0.262329 0.262478 0.262624 0.262791 0.262929 0.26308 0.263241 0.263464 0.263704 0.263918 0.264144 0.264385 0.264611 0.264815 0.265063 0.265298 0.26561 0.265876 0.266167 0.266425 0.266691 0.266973 0.267242 0.267547 0.267866 0.268191 0.268551 0.268918 0.269267 0.269582 0.269971 0.270394 0.270813 0.271273 0.271681 0.272157 0.272562 0.273041 0.273603 0.274185 0.274695 0.275259 0.275842 0.276482 0.277222 0.277885 0.278607 0.27935 0.28034 0.28222 0.287216 0.294071 0.294254 0.294407 0.29455 0.294743 0.294903 0.295117 0.295149 0.295417 0.295541 0.295756 0.295885 0.296143 0.296281 0.296415 0.296623 0.296799 0.296972 0.297174 0.29726 0.297572 0.297753 0.297937 0.298047 0.29824 0.298429 0.298586 0.298896 0.298979 0.299199 0.299455 0.299512 0.299788 0.29993 0.30017 0.300389 0.300518 0.300643 0.300897 0.301059 0.301242 0.301546 0.301655 0.301951 0.302027 0.302271 0.302498 0.302688 0.302905 0.303058 0.303315 0.303469 0.303646 0.303823 0.304072 0.304217 0.304523 0.304756 0.304917 0.305137 0.305287 0.305481 0.305769 0.305866 0.306117 0.306344 0.306496 0.306773 0.306949 0.307227 0.307402 0.307547 0.307801 0.308071 0.308202 0.308423 0.308675 0.308896 0.309154 0.309321 0.309639 0.309737 0.309958 0.310126 0.310314 0.310693 0.310919 0.311057 0.311317 0.311494 0.311709 0.312012 0.312152 0.312495 0.312679 0.312985 0.313138 0.313279 0.313521 0.313843 0.314046 0.314257 0.314473 0.314734 0.314903
0 0 0 0 0 0 0 0 0 0 0 0 0 0 0 0 0 0 0 0 0 0 0 0 0 0 0 0 0 0.00207874 0.0915372 0.258167 0.305893 0.30577 0.305578 0.305331 0.305098 0.304897 0.304746 0.3045 0.304298 0.304027 0.303819 0.30363 0.303464 0.303196 0.303008 0.302782 0.302668 0.302467 0.30226 0.301992 0.301837 0.301665 0.301405 0.30126 0.300981 0.300869 0.300625 0.300468 0.300184 0.300053 0.299966 0.299664 0.299456 0.299205 0.29898 0.298903 0.298694 0.298495 0.298282 0.298075 0.298001 0.297801 0.297576 0.297399 0.297186 0.296959 0.296795 0.296615 0.29644 0.29632 0.296155 0.295903 0.295745 0.295537 0.295402 0.295174 0.295004 0.294936 0.29458 0.294544 0.294319 0.294172 0.293976 0.293812 0.293606 0.293439 0.293326 0.293171 0.292883 0.292727 0.292556 0.292381 0.292335 0.292112 0.291889 0.291792 0.291705 0.291371 0.291261 0.291081 0.290928 0.290832 0.290686 0.29046 0.290275 0.290165 0.29 0.289776 0.289676 0.289501 0.289356 0.289216 0.289042 0.288919 0.288867 0.288571 0.288479 0.288343 0.288145 0.287981 0.287845 0.287653 0.287601 0.287417 0.287314 0.287214 0.287041 0.286831 0.286711 0.286523 0.286461 0.286315 0.28615 0.286046 0.285893 0.285773 0.285568 0.285474 0.285347 0.285222 0.285014 0.284911 0.284777 0.284624 0.284531 0.284383 0.284332 0.284217 0.284002 0.283849 0.283799 0.283639 0.283516 0.283392 0.283197 0.283111 0.283036 0.282953 0.282839 0.282708 0.282559 0.28245 0.282324 0.282227 0.282064 0.281997 0.281905 0.281821 0.28166 0.281529 0.281372 0.281268 0.281194 0.281053 0.281045 0.280901 0.280796 0.280624 0.280511 0.28046 0.280273 0.280291 0.280154 0.280087 0.279959 0.279811 0.279733 0.279633 0.279532 0.279429 0.2794 0.27929 0.279229 0.279086 0.279048 0.27888 0.27869 0.278771 0.278063 0.244305 0.238166 0.237521 0.237189 0.236843 0.236603 0.236695 0.236829 0.237192 0.2499 0.277689 0.277678 0.277569 0.277398 0.260727 0.254197 0.253001 0.251835 0.250978 0.250162 0.249307 0.248828 0.248305 0.24784 0.247373 0.247048 0.246718 0.246414 0.246074 0.245766 0.245558 0.245368 0.245166 0.24497 0.244775 0.244609 0.244484 0.244351 0.24422 0.244086 0.243962 0.243896 0.243847 0.243798 0.243751 0.243707 0.243657 0.243662 0.243697 0.243724 0.243764 0.243799 0.243837 0.243913 0.244022 0.244126 0.244258 0.24437 0.244495 0.244661 0.244858 0.245074 0.245281 0.24549 0.24574 0.246022 0.246358 0.246662 0.246992 0.247378 0.24779 0.248286 0.248711 0.249215 0.249869 0.250587 0.251309 0.252247 0.25329 0.254715 0.262617 0.274003 0.273945 0.273923 0.273991 0.274052 0.273862 0.273957 0.2739 0.273869 0.273809 0.273857 0.273879 0.273764 0.27382 0.273765 0.273794 0.273795 0.273764 0.273704 0.273708 0.273749 0.27376 0.273797 0.273688 0.273691 0.273737 0.273679 0.273721 0.273743 0.273667 0.273752 0.273724 0.273769 0.273743 0.273732 0.273764 0.273674 0.273838 0.273736 0.273798 0.273765 0.273781 0.273786 0.273842 0.27381 0.273813 0.27381 0.273836 0.273923 0.273855 0.273876 0.273941 0.273916 0.273945 0.274 0.274014 0.274072 0.274114 0.274166 0.274093 0.274164 0.274186 0.274176 0.274217 0.274233 0.274348 0.274382 0.274314 0.274409 0.274436 0.274434 0.274476 0.274497 0.274539 0.274618 0.274651 0.274596 0.274688 0.274836 0.274797 0.274842 0.274841 0.274912 0.274973 0.275083 0.275073 0.275125 0.275246 0.275126 0.275211 0.275297 0.275433 0.275497 0.275412 0.275483 0.275615 0.275538 0.275687 0.275795 0.275809 0.275959 0.275982 0.27606 0.276054 0.276078 0.276153 0.276198 0.27626 0.27647 0.276388 0.276595 0.276561 0.276635 0.276748 0.276695 0.276652 0.275178 0.273615 0.27265 0.271879 0.271157 0.270431 0.269866 0.269276 0.268728 0.268192 0.267671 0.267123 0.266713 0.26629 0.265897 0.26556 0.265231 0.26496 0.264712 0.264495 0.264293 0.264095 0.263913 0.263736 0.263542 0.263351 0.263161 0.262981 0.26284 0.262692 0.262577 0.262445 0.262316 0.262192 0.262061 0.261941 0.261817 0.26173 0.261652 0.261574 0.261507 0.26144 0.261373 0.261302 0.26123 0.261164 0.261121 0.261104 0.261077 0.261069 0.261048 0.261028 0.261006 0.260994 0.260976 0.260979 0.261009 0.261032 0.261072 0.261096 0.261133 0.261172 0.26121 0.261248 0.261281 0.261359 0.261442 0.261533 0.261625 0.261696 0.261785 0.26188 0.261956 0.262057 0.262176 0.262322 0.262458 0.262598 0.262741 0.262879 0.263025 0.263167 0.263309 0.263487 0.263696 0.263893 0.264095 0.264297 0.264482 0.264689 0.264897 0.265104 0.265368 0.265626 0.265904 0.266175 0.266434 0.266708 0.266978 0.267242 0.267577 0.267924 0.268266 0.268615 0.268968 0.269318 0.269613 0.27005 0.270491 0.27091 0.271367 0.271796 0.27223 0.272686 0.273171 0.273733 0.274299 0.274831 0.2754 0.275959 0.276648 0.277371 0.278161 0.279241 0.280834 0.283247 0.289136 0.292258 0.292422 0.292624 0.292833 0.292946 0.293118 0.293324 0.29339 0.293617 0.293723 0.293996 0.294223 0.294323 0.294434 0.294644 0.294962 0.29508 0.295266 0.295398 0.295526 0.295693 0.29592 0.295975 0.296245 0.296481 0.296601 0.296828 0.297023 0.297214 0.297389 0.297493 0.297755 0.297834 0.298113 0.298386 0.298439 0.298695 0.298915 0.299068 0.299323 0.299498 0.299649 0.299872 0.300019 0.300205 0.300482 0.300652 0.300827 0.301004 0.301292 0.301424 0.301652 0.301863 0.302027 0.302126 0.302412 0.30259 0.30283 0.302968 0.303235 0.303461 0.303639 0.303828 0.304012 0.304321 0.304479 0.304706 0.304856 0.305085 0.305355 0.305522 0.305732 0.305931 0.306245 0.306399 0.306669 0.306848 0.306955 0.307259 0.307516 0.30762 0.307905 0.308115 0.308287 0.308548 0.30882 0.309073 0.309204 0.309451 0.309678 0.309913 0.310048 0.310333 0.310553 0.310775 0.310994 0.311165 0.311435 0.31168 0.311879 0.312133 0.312377 0.312583 0.312875 0.312996
0 0 0 0 0 0 0 0 0 0 0 0 0 0 0 0 0 0 0 0 0 0 0 0 0 0 0 0 0.057964 0.227949 0.304512 0.304374 0.304088 0.303867 0.303692 0.3035 0.303316 0.303121 0.302852 0.302693 0.302396 0.302224 0.302063 0.301851 0.301635 0.301412 0.301235 0.300972 0.300741 0.300606 0.300391 0.300197 0.300022 0.299795 0.299622 0.299436 0.299186 0.299013 0.298825 0.298691 0.298422 0.298282 0.298096 0.297885 0.297703 0.297466 0.297237 0.297086 0.296974 0.296706 0.296577 0.2963 0.296128 0.295937 0.29576 0.295572 0.295435 0.295271 0.295058 0.294898 0.294726 0.294534 0.294262 0.29409 0.293955 0.293801 0.293624 0.293416 0.293257 0.293092 0.292883 0.292692 0.29254 0.292439 0.29225 0.291988 0.291891 0.29159 0.291485 0.291268 0.291088 0.290945 0.290888 0.290669 0.290545 0.290331 0.29018 0.290027 0.289853 0.289677 0.289529 0.289425 0.289215 0.289055 0.288911 0.288793 0.288509 0.288416 0.288317 0.288108 0.287983 0.287814 0.287653 0.287607 0.287342 0.287217 0.287115 0.286835 0.286628 0.286587 0.28642 0.286268 0.286178 0.28601 0.285848 0.285674 0.285523 0.285547 0.285306 0.285145 0.28503 0.284829 0.284641 0.284592 0.28442 0.284314 0.284166 0.284038 0.283966 0.283777 0.283651 0.283531 0.283362 0.283144 0.283145 0.282985 0.28291 0.282646 0.282589 0.282396 0.282269 0.282172 0.28213 0.281966 0.281819 0.2817 0.281612 0.281503 0.28132 0.281268 0.281135 0.280987 0.280837 0.280781 0.280615 0.28052 0.2804 0.280282 0.280168 0.280139 0.279936 0.279855 0.279736 0.279617 0.279485 0.279413 0.279332 0.279201 0.279143 0.278983 0.278859 0.278855 0.278655 0.278554 0.278523 0.27837 0.278304 0.278153 0.278023 0.278022 0.27787 0.277882 0.277749 0.277602 0.277499 0.277429 0.277358 0.277228 0.27708 0.27708 0.276985 0.268932 0.239202 0.23824 0.237777 0.237415 0.237087 0.236999 0.237127 0.237265 0.237927 0.270067 0.275991 0.27591 0.275811 0.260943 0.254336 0.253106 0.251965 0.251085 0.250245 0.249299 0.248801 0.248362 0.247874 0.247442 0.247108 0.246786 0.246477 0.246158 0.245882 0.245667 0.245474 0.245277 0.245071 0.24488 0.244728 0.2446 0.244462 0.244332 0.2442 0.244073 0.244011 0.243959 0.243908 0.243867 0.243814 0.243773 0.243781 0.24381 0.243839 0.243877 0.243911 0.24394 0.244024 0.244138 0.244254 0.244364 0.244482 0.244604 0.244775 0.244993 0.245195 0.245414 0.245618 0.245841 0.246142 0.246466 0.246777 0.247122 0.247467 0.247917 0.24837 0.248855 0.24934 0.250025 0.250682 0.251373 0.252374 0.253382 0.254833 0.261695 0.272414 0.272396 0.272324 0.272264 0.27229 0.272327 0.27223 0.272304 0.272232 0.272272 0.272174 0.272226 0.272176 0.272163 0.272235 0.272179 0.272142 0.272159 0.272158 0.27204 0.272084 0.272095 0.27205 0.272098 0.272087 0.272063 0.272076 0.2721 0.272098 0.272066 0.27211 0.272161 0.27209 0.272033 0.272154 0.272165 0.272111 0.272159 0.272137 0.272191 0.272201 0.272126 0.272128 0.272173 0.272163 0.272184 0.27221 0.272191 0.272252 0.272252 0.272331 0.272312 0.272333 0.272377 0.272398 0.272428 0.272385 0.272383 0.272445 0.272456 0.272517 0.272566 0.272556 0.272595 0.272634 0.272703 0.272707 0.272713 0.272732 0.272823 0.272885 0.272872 0.27295 0.272908 0.272937 0.27299 0.273023 0.273131 0.273192 0.273239 0.273246 0.273234 0.273301 0.273366 0.273363 0.273451 0.273472 0.273528 0.273591 0.273523 0.273679 0.273673 0.273787 0.273913 0.273869 0.273967 0.274037 0.274002 0.274136 0.274103 0.274246 0.274319 0.274336 0.274403 0.274482 0.274557 0.274601 0.274637 0.274795 0.274796 0.274888 0.274946 0.275047 0.275072 0.275162 0.275182 0.275289 0.275242 0.274379 0.272913 0.27152 0.270787 0.270178 0.269684 0.269101 0.268581 0.268016 0.267451 0.267003 0.266612 0.266207 0.265805 0.265393 0.265002 0.264607 0.264325 0.264085 0.263869 0.263678 0.263504 0.263308 0.263118 0.262947 0.262751 0.262615 0.262496 0.262374 0.262234 0.262105 0.261983 0.261855 0.261731 0.261609 0.261531 0.26146 0.261377 0.261306 0.261238 0.261162 0.261106 0.261034 0.260967 0.260928 0.260904 0.260887 0.260864 0.260846 0.260836 0.260813 0.260801 0.260791 0.26079 0.260806 0.260846 0.260876 0.260907 0.26095 0.260974 0.261007 0.261057 0.261093 0.26116 0.261253 0.261338 0.261414 0.261493 0.261592 0.261685 0.261773 0.261861 0.261972 0.262111 0.262242 0.262383 0.262522 0.262671 0.262819 0.262957 0.263104 0.263275 0.263458 0.263666 0.263861 0.26406 0.264273 0.264469 0.26468 0.26488 0.265129 0.265387 0.265638 0.265924 0.266181 0.266452 0.266744 0.266978 0.267292 0.267633 0.267986 0.268316 0.268668 0.269012 0.269381 0.269715 0.270138 0.270576 0.271 0.271438 0.271859 0.27234 0.272788 0.273344 0.273866 0.274446 0.274993 0.275564 0.276199 0.277288 0.278537 0.279857 0.281804 0.284699 0.290003 0.290475 0.290593 0.290766 0.29113 0.291163 0.291391 0.291571 0.29169 0.291898 0.291987 0.292185 0.292455 0.292613 0.292706 0.292943 0.293077 0.293337 0.293435 0.293616 0.293818 0.294019 0.294168 0.294307 0.294481 0.294667 0.29489 0.295016 0.295271 0.295442 0.295665 0.29582 0.295998 0.296221 0.296389 0.296503 0.296702 0.296894 0.297038 0.297304 0.297473 0.297756 0.297768 0.298054 0.298212 0.298437 0.298617 0.298849 0.298945 0.299278 0.299435 0.29962 0.299808 0.299917 0.30025 0.300425 0.300644 0.300866 0.300984 0.301145 0.301332 0.301538 0.301802 0.302017 0.302263 0.30248 0.302676 0.302867 0.303047 0.30327 0.303454 0.303626 0.303906 0.304094 0.304349 0.304574 0.304766 0.30492 0.305209 0.305342 0.305631 0.305895 0.306097 0.306265 0.306446 0.306697 0.306885 0.307179 0.307274 0.307557 0.307875 0.308124 0.308213 0.308448 0.308584 0.308915 0.309123 0.309347 0.309606 0.309755 0.310087 0.310263 0.310489 0.310668 0.310892 0.311217
0 0 0 0 0 0 0 0 0 0 0 0 0 0 0 0 0 0 0 0 0 0 0 0 0 0 0.0494617 0.230942 0.303162 0.302961 0.302743 0.3025 0.30231 0.302131 0.30183 0.301675 0.301437 0.301203 0.301024 0.300932 0.300673 0.300471 0.300238 0.300061 0.299874 0.299712 0.299408 0.29926 0.298974 0.298905 0.298608 0.298413 0.298303 0.297944 0.297828 0.297633 0.297463 0.297262 0.296975 0.296874 0.296621 0.296427 0.296313 0.296092 0.295869 0.295618 0.295513 0.29533 0.295155 0.294956 0.294848 0.294502 0.294357 0.294206 0.293999 0.293827 0.293689 0.293532 0.29333 0.293061 0.292832 0.29277 0.292612 0.292353 0.292201 0.291971 0.291836 0.291783 0.291524 0.291352 0.291132 0.290978 0.290824 0.290673 0.290488 0.290401 0.290119 0.289995 0.289814 0.289609 0.289389 0.28928 0.289159 0.288912 0.288795 0.288634 0.288466 0.28831 0.288145 0.287977 0.287841 0.287614 0.287525 0.287354 0.287127 0.286967 0.286855 0.286698 0.286553 0.286384 0.286275 0.28612 0.285842 0.285837 0.285585 0.285506 0.285354 0.285214 0.285001 0.284873 0.284694 0.284627 0.284413 0.284292 0.284203 0.284048 0.283899 0.283747 0.283559 0.283476 0.283277 0.283177 0.283075 0.282895 0.282768 0.282595 0.282426 0.282435 0.282181 0.282076 0.28202 0.281846 0.281687 0.281502 0.281413 0.281277 0.281099 0.281033 0.280944 0.280742 0.280695 0.280496 0.280413 0.280258 0.280051 0.280034 0.279871 0.2798 0.27966 0.279654 0.279415 0.279345 0.27915 0.279035 0.27902 0.278858 0.278842 0.278645 0.278563 0.278428 0.278321 0.278253 0.278122 0.277964 0.277844 0.277788 0.277579 0.277597 0.277482 0.277331 0.27733 0.27714 0.276933 0.276938 0.276837 0.276695 0.276668 0.276553 0.276465 0.27635 0.276277 0.276143 0.276062 0.275951 0.27588 0.275885 0.275716 0.275597 0.275569 0.275391 0.275347 0.2753 0.255686 0.23925 0.238491 0.238054 0.237711 0.23741 0.237413 0.237571 0.237777 0.239333 0.256803 0.274087 0.27415 0.261495 0.254483 0.253211 0.252069 0.251191 0.250256 0.249301 0.248731 0.248321 0.247884 0.247475 0.24716 0.246832 0.246501 0.246179 0.245968 0.245784 0.245584 0.245384 0.245191 0.244988 0.244845 0.244706 0.244577 0.244444 0.244317 0.244188 0.244124 0.244073 0.24402 0.243984 0.243932 0.243889 0.243892 0.243923 0.24395 0.243989 0.244029 0.244061 0.244137 0.244253 0.24436 0.244486 0.244613 0.244719 0.244891 0.245104 0.245307 0.245516 0.245726 0.245959 0.246268 0.246571 0.2469 0.247222 0.247573 0.248033 0.248493 0.248983 0.249496 0.250144 0.250799 0.251512 0.252428 0.253563 0.254987 0.26051 0.270754 0.270767 0.270755 0.270761 0.270773 0.270684 0.270662 0.270679 0.270643 0.270592 0.270579 0.270543 0.270586 0.270623 0.27058 0.270527 0.270504 0.270607 0.270558 0.270583 0.270588 0.270534 0.270467 0.270501 0.270491 0.270501 0.270487 0.270535 0.270445 0.270441 0.270488 0.270493 0.270507 0.270422 0.270528 0.270495 0.270465 0.27057 0.270528 0.270532 0.270547 0.270619 0.270673 0.270596 0.270576 0.27061 0.270632 0.270547 0.270649 0.270649 0.270693 0.270765 0.270698 0.270701 0.270779 0.270811 0.270797 0.27084 0.270852 0.270924 0.270889 0.270967 0.271031 0.271032 0.271092 0.271101 0.271079 0.27112 0.271187 0.271198 0.271314 0.271216 0.271308 0.271354 0.271266 0.271363 0.271501 0.271477 0.271479 0.271572 0.271634 0.271708 0.271695 0.271756 0.271758 0.271824 0.271808 0.271953 0.271941 0.271985 0.272057 0.272136 0.27222 0.272195 0.272362 0.272334 0.272377 0.272437 0.272527 0.272528 0.272613 0.272668 0.27269 0.272809 0.272893 0.272924 0.273013 0.27304 0.273087 0.273204 0.273225 0.273293 0.273399 0.273414 0.273489 0.273553 0.273689 0.273735 0.273867 0.273861 0.273477 0.272253 0.270698 0.27 0.269477 0.268906 0.268356 0.267846 0.267353 0.266952 0.266511 0.266084 0.265717 0.265305 0.264909 0.264579 0.264249 0.263964 0.263657 0.263383 0.263131 0.262914 0.262702 0.26254 0.262403 0.262275 0.262143 0.262033 0.261897 0.261772 0.261646 0.26152 0.261411 0.261327 0.261261 0.261186 0.261108 0.261041 0.260976 0.260903 0.260838 0.260771 0.260734 0.260713 0.260689 0.260672 0.260665 0.260647 0.260624 0.260603 0.260592 0.26059 0.260614 0.260649 0.260686 0.260711 0.26075 0.260781 0.260827 0.260868 0.260901 0.260969 0.261045 0.261132 0.261218 0.261306 0.261397 0.261481 0.261572 0.26167 0.261769 0.261902 0.262052 0.262177 0.262323 0.262469 0.262601 0.262751 0.262893 0.263052 0.263244 0.263443 0.263638 0.263829 0.264036 0.264247 0.264451 0.264646 0.264867 0.265141 0.265399 0.265677 0.265943 0.266191 0.266459 0.266746 0.267027 0.26735 0.267688 0.268027 0.268373 0.268714 0.269067 0.269412 0.269788 0.27025 0.27066 0.271098 0.27154 0.271986 0.272427 0.272915 0.273489 0.274104 0.274797 0.275605 0.276589 0.277812 0.279107 0.280611 0.282828 0.286512 0.288681 0.288874 0.288992 0.289151 0.289271 0.289472 0.289633 0.289787 0.289971 0.290158 0.290255 0.29041 0.290602 0.290829 0.290932 0.29117 0.291348 0.291531 0.291578 0.29184 0.292063 0.292152 0.292431 0.292548 0.292741 0.292977 0.293139 0.293261 0.293461 0.293662 0.293934 0.29406 0.294177 0.294391 0.294575 0.294667 0.294941 0.295125 0.295321 0.295553 0.295653 0.29587 0.29612 0.29633 0.296446 0.296629 0.296892 0.297104 0.297238 0.297328 0.297641 0.297845 0.298019 0.298133 0.2985 0.298643 0.298887 0.299055 0.299202 0.299425 0.299633 0.299843 0.300086 0.300227 0.300448 0.300591 0.300861 0.300958 0.301297 0.30152 0.301616 0.301824 0.302056 0.302309 0.302552 0.302655 0.30301 0.303159 0.303298 0.303578 0.303743 0.303958 0.304264 0.304416 0.304601 0.304872 0.30509 0.305292 0.305485 0.305747 0.305946 0.306213 0.306395 0.306612 0.306763 0.307085 0.307263 0.307469 0.307785 0.307964 0.308152 0.308413 0.308602 0.308886 0.309126 0.309254
0 0 0 0 0 0 0 0 0 0 0 0 0 0 0 0 0 0 0 0 0 0 0 0 0.0328178 0.213452 0.2997 0.301671 0.301332 0.301148 0.300888 0.300651 0.300476 0.300289 0.300097 0.299901 0.299673 0.2995 0.29921 0.299056 0.298879 0.298633 0.29848 0.298323 0.297973 0.297845 0.297702 0.297374 0.297322 0.29701 0.296819 0.296649 0.296397 0.296263 0.296103 0.295858 0.295688 0.295436 0.295339 0.295091 0.294915 0.29467 0.294552 0.294325 0.294121 0.293985 0.293719 0.293565 0.29337 0.293212 0.293006 0.292861 0.292648 0.292459 0.292266 0.292132 0.291945 0.291808 0.291634 0.291399 0.291262 0.291032 0.290873 0.290711 0.290485 0.290395 0.290144 0.289902 0.28978 0.289624 0.289463 0.289297 0.289102 0.288963 0.288837 0.288618 0.288491 0.288174 0.288052 0.287851 0.287709 0.28753 0.287409 0.287248 0.287129 0.28689 0.286767 0.28663 0.286385 0.286229 0.286105 0.285941 0.285779 0.285668 0.285535 0.28536 0.285165 0.285007 0.284832 0.284679 0.284497 0.284419 0.28431 0.284147 0.283929 0.283772 0.283711 0.283535 0.283346 0.283155 0.28308 0.282938 0.282839 0.282589 0.282447 0.28239 0.282207 0.282062 0.281896 0.281797 0.281715 0.281531 0.28135 0.281261 0.281115 0.281 0.280798 0.280702 0.280596 0.280419 0.280289 0.280133 0.280038 0.279944 0.279836 0.27961 0.279521 0.279403 0.279257 0.279101 0.279083 0.2789 0.278719 0.278655 0.278555 0.278409 0.278232 0.278192 0.277985 0.277877 0.277767 0.277685 0.277562 0.27747 0.277315 0.277235 0.277135 0.277061 0.276927 0.276752 0.276726 0.276527 0.276485 0.276315 0.276216 0.276106 0.276002 0.275938 0.275816 0.275674 0.275635 0.275533 0.275432 0.275304 0.275237 0.27509 0.275046 0.274871 0.274847 0.274689 0.274616 0.274609 0.27451 0.2744 0.274211 0.274267 0.274114 0.27392 0.273957 0.273834 0.273682 0.273613 0.272348 0.247987 0.239319 0.238682 0.23835 0.237976 0.237753 0.23785 0.238014 0.238333 0.239021 0.249488 0.270491 0.26042 0.254504 0.253334 0.252211 0.251274 0.250012 0.248741 0.24811 0.247631 0.247337 0.24729 0.247111 0.246811 0.246452 0.246206 0.246046 0.245888 0.245702 0.245499 0.245303 0.245116 0.244947 0.244818 0.24469 0.244557 0.244434 0.244302 0.244231 0.24418 0.244136 0.244093 0.24405 0.244006 0.244009 0.244038 0.244069 0.2441 0.244135 0.244178 0.244252 0.244368 0.244482 0.244594 0.24472 0.244835 0.244997 0.245217 0.24543 0.245644 0.245851 0.246074 0.246382 0.246679 0.247027 0.247343 0.247707 0.248164 0.248636 0.249111 0.249571 0.250209 0.250915 0.251645 0.252568 0.253651 0.255146 0.260602 0.269257 0.26919 0.269169 0.269162 0.269083 0.269162 0.269043 0.269117 0.269143 0.269077 0.269097 0.268937 0.268997 0.268999 0.268988 0.269008 0.268911 0.268909 0.268906 0.268954 0.268866 0.268959 0.268936 0.268949 0.268896 0.268904 0.268971 0.268916 0.268904 0.268915 0.268906 0.268935 0.268891 0.268917 0.268947 0.269017 0.268956 0.26898 0.268936 0.268932 0.269006 0.269027 0.26894 0.269012 0.268944 0.269114 0.269082 0.269071 0.269074 0.269046 0.269175 0.269099 0.269248 0.269226 0.269192 0.269267 0.269239 0.269253 0.269268 0.269335 0.269343 0.269375 0.269411 0.269468 0.269478 0.269529 0.269479 0.269472 0.269569 0.2696 0.269683 0.269717 0.26968 0.269754 0.269886 0.269782 0.269825 0.269988 0.26989 0.270059 0.269983 0.270035 0.270141 0.270092 0.270224 0.270232 0.270269 0.270409 0.270398 0.270428 0.270485 0.27056 0.270551 0.270677 0.270705 0.270776 0.270808 0.270879 0.270865 0.2709 0.271012 0.271091 0.271151 0.271182 0.271236 0.27132 0.271426 0.271499 0.271567 0.271604 0.271681 0.271717 0.271731 0.271897 0.271925 0.272006 0.272151 0.272143 0.272204 0.272245 0.272371 0.272424 0.272395 0.271749 0.27086 0.269475 0.268722 0.268165 0.267674 0.267286 0.266864 0.266438 0.266041 0.265639 0.265222 0.264868 0.264551 0.264265 0.263964 0.263666 0.263358 0.263062 0.262763 0.26252 0.262332 0.262139 0.261981 0.261828 0.261679 0.261559 0.261436 0.261315 0.261217 0.261132 0.261061 0.260986 0.260905 0.26085 0.260776 0.260707 0.260641 0.260569 0.260548 0.260514 0.260503 0.260488 0.260467 0.26045 0.260431 0.260425 0.260403 0.260407 0.260417 0.260466 0.260492 0.260524 0.260562 0.260599 0.260634 0.260674 0.260708 0.26077 0.260852 0.26094 0.26102 0.261108 0.2612 0.261292 0.261369 0.261465 0.261565 0.261689 0.261841 0.261974 0.262108 0.262252 0.262404 0.262547 0.262689 0.262835 0.26302 0.263219 0.26341 0.263606 0.263824 0.264016 0.264216 0.264414 0.264638 0.264891 0.265152 0.265424 0.265696 0.265942 0.266223 0.266487 0.266748 0.267073 0.267426 0.267768 0.268082 0.268436 0.268775 0.269092 0.269492 0.269891 0.270337 0.27079 0.271215 0.27166 0.272158 0.272745 0.273522 0.2743 0.275213 0.276042 0.277159 0.278452 0.279772 0.281446 0.28482 0.286834 0.286932 0.287027 0.287287 0.287469 0.287571 0.287765 0.287875 0.288059 0.288215 0.288391 0.288592 0.288704 0.288942 0.289112 0.289216 0.289416 0.289665 0.289845 0.289991 0.290163 0.290293 0.290444 0.29066 0.290785 0.290979 0.291202 0.291386 0.291644 0.291736 0.291871 0.29213 0.292317 0.292458 0.29276 0.292819 0.292962 0.293208 0.293464 0.293558 0.293802 0.293904 0.294118 0.294336 0.294571 0.294737 0.294981 0.295126 0.295296 0.295466 0.295709 0.295893 0.296044 0.296235 0.296371 0.296653 0.296865 0.297046 0.297329 0.297492 0.29766 0.297854 0.297977 0.298205 0.298512 0.298626 0.298832 0.299042 0.299265 0.299471 0.299713 0.299854 0.300076 0.300269 0.300536 0.300703 0.300849 0.301105 0.301309 0.301477 0.30171 0.301989 0.302241 0.302405 0.302561 0.302807 0.303014 0.303291 0.303482 0.303727 0.303915 0.304124 0.304324 0.304527 0.304788 0.30493 0.30529 0.305478 0.305642 0.305762 0.306128 0.306309 0.306512 0.306772 0.306989 0.307232 0.307474
0 0 0 0 0 0 0 0 0 0 0 0 0 0 0 0 0 0 0 0 0 0 0.0183695 0.161371 0.288089 0.300183 0.299928 0.299767 0.299552 0.299297 0.29918 0.299066 0.298726 0.298562 0.298345 0.298119 0.297907 0.297657 0.29754 0.297284 0.29711 0.296815 0.296637 0.296508 0.296278 0.29612 0.295901 0.295749 0.295562 0.295281 0.295084 0.294959 0.294692 0.294474 0.294343 0.294061 0.293892 0.293781 0.293514 0.293439 0.293185 0.293045 0.292741 0.292556 0.292458 0.292195 0.292037 0.291869 0.291677 0.291549 0.291365 0.29109 0.290883 0.290745 0.290555 0.290443 0.290239 0.290028 0.289827 0.289692 0.289485 0.289289 0.289213 0.288936 0.288742 0.288597 0.288448 0.288237 0.288088 0.287969 0.287747 0.287576 0.287427 0.287167 0.287027 0.286865 0.286718 0.286578 0.286455 0.286264 0.286106 0.285913 0.285759 0.285538 0.28542 0.285209 0.285089 0.284965 0.284841 0.284628 0.284484 0.284302 0.284101 0.283972 0.283816 0.283719 0.283534 0.283384 0.283172 0.283073 0.282915 0.282699 0.28256 0.28238 0.282388 0.282167 0.282007 0.281933 0.281722 0.281535 0.281383 0.281257 0.281124 0.281006 0.280915 0.280755 0.280552 0.280363 0.28027 0.280173 0.280009 0.279836 0.279795 0.279567 0.279367 0.279323 0.279242 0.279041 0.278943 0.278806 0.278639 0.278552 0.278375 0.27828 0.278209 0.27799 0.277861 0.277787 0.277612 0.277603 0.277384 0.277221 0.277135 0.277014 0.276967 0.276796 0.276696 0.276549 0.276387 0.276373 0.276138 0.276064 0.27608 0.275847 0.275677 0.275632 0.27551 0.27542 0.275252 0.275165 0.275102 0.27494 0.274834 0.274725 0.274641 0.274517 0.2744 0.274313 0.274216 0.274125 0.274044 0.274046 0.273865 0.273771 0.273616 0.273523 0.273464 0.273261 0.273268 0.273134 0.273024 0.272964 0.27279 0.27273 0.272654 0.272598 0.27251 0.272433 0.272243 0.272194 0.272136 0.272035 0.271917 0.269924 0.247857 0.239593 0.239013 0.238613 0.23824 0.238177 0.238331 0.238534 0.238834 0.239576 0.241724 0.248611 0.249174 0.250968 0.250635 0.248455 0.247124 0.246772 0.24658 0.246507 0.246564 0.246605 0.246592 0.246575 0.246445 0.246276 0.246123 0.245978 0.245815 0.245623 0.245424 0.245224 0.245071 0.244944 0.244813 0.244675 0.244544 0.24442 0.244341 0.244302 0.244248 0.244212 0.244163 0.244125 0.244125 0.244151 0.244186 0.244228 0.244248 0.24429 0.244373 0.244478 0.244596 0.244717 0.244834 0.244956 0.245121 0.245324 0.24554 0.245747 0.245962 0.246186 0.246505 0.246823 0.247146 0.24747 0.247825 0.248277 0.248732 0.249209 0.249717 0.250355 0.251067 0.251713 0.25272 0.253728 0.255291 0.260434 0.267676 0.267686 0.267563 0.267556 0.267589 0.267502 0.267515 0.26749 0.26762 0.267543 0.267491 0.26747 0.267381 0.267468 0.267442 0.267396 0.267431 0.267324 0.267387 0.26743 0.267353 0.267409 0.267391 0.267436 0.267374 0.267333 0.267408 0.267312 0.267391 0.267325 0.267308 0.26734 0.267374 0.267307 0.267356 0.267325 0.267391 0.267452 0.267379 0.267477 0.267392 0.267478 0.267424 0.267516 0.267462 0.267496 0.267497 0.267437 0.267567 0.267548 0.267524 0.267601 0.26759 0.267626 0.267666 0.2676 0.267747 0.267703 0.267791 0.267754 0.267754 0.267867 0.267834 0.267882 0.267898 0.267881 0.267988 0.267993 0.26796 0.268044 0.268068 0.26812 0.268159 0.268203 0.268213 0.268244 0.268297 0.268354 0.268408 0.268388 0.268395 0.268573 0.268571 0.268587 0.268649 0.268666 0.268718 0.268792 0.268871 0.268775 0.268921 0.268956 0.268902 0.269056 0.269136 0.269159 0.269275 0.269303 0.26937 0.269401 0.269422 0.269495 0.269572 0.269654 0.26968 0.269801 0.269879 0.269866 0.269978 0.269971 0.270127 0.270077 0.270234 0.270289 0.270296 0.270421 0.270498 0.270499 0.270613 0.270715 0.270737 0.270832 0.270959 0.270967 0.271109 0.271121 0.270574 0.26942 0.26834 0.267595 0.267172 0.266769 0.266352 0.265939 0.26557 0.265185 0.264854 0.264566 0.264251 0.263981 0.263678 0.263369 0.263058 0.262817 0.26259 0.262357 0.262172 0.261948 0.261749 0.261552 0.261353 0.261183 0.261047 0.260952 0.260872 0.260791 0.260715 0.260653 0.260583 0.260507 0.260436 0.260379 0.260357 0.26033 0.260314 0.260292 0.260275 0.260259 0.260248 0.26023 0.260211 0.260216 0.26024 0.260266 0.260311 0.260346 0.260376 0.260417 0.260443 0.260479 0.260522 0.260582 0.260658 0.260739 0.260833 0.26092 0.260999 0.261105 0.261178 0.261264 0.261362 0.261491 0.261622 0.261766 0.261917 0.262063 0.262188 0.26234 0.262483 0.262626 0.262792 0.262985 0.263188 0.263406 0.263587 0.263803 0.264002 0.264196 0.264391 0.264645 0.264911 0.265174 0.265422 0.265694 0.265977 0.266219 0.266501 0.266796 0.267118 0.267486 0.267811 0.268136 0.268486 0.268823 0.269188 0.269605 0.270078 0.270647 0.271191 0.271806 0.272457 0.273142 0.273997 0.274831 0.275658 0.27657 0.277704 0.279008 0.280346 0.283469 0.284913 0.285064 0.285263 0.28539 0.285621 0.285869 0.28586 0.285994 0.286171 0.286392 0.286553 0.286726 0.28697 0.287109 0.287219 0.287396 0.287534 0.287748 0.287895 0.288058 0.288298 0.288423 0.288604 0.28883 0.28893 0.289198 0.289346 0.28952 0.289679 0.289887 0.290023 0.290259 0.290422 0.290596 0.290738 0.2909 0.291094 0.291306 0.291421 0.291677 0.291898 0.291968 0.292195 0.292446 0.292643 0.292796 0.29297 0.293197 0.293367 0.293499 0.293746 0.293959 0.294093 0.294286 0.29452 0.294707 0.294864 0.295067 0.295273 0.295449 0.295696 0.295886 0.296091 0.296249 0.296523 0.296747 0.29688 0.297027 0.297385 0.297517 0.297676 0.297882 0.2981 0.298376 0.298501 0.298765 0.298937 0.299115 0.299368 0.29955 0.299795 0.30004 0.300181 0.300399 0.300619 0.300768 0.30104 0.301327 0.301467 0.301729 0.301915 0.3021 0.302332 0.302573 0.302762 0.30297 0.30316 0.303401 0.303618 0.303856 0.30407 0.304298 0.304597 0.304786 0.305032 0.305197 0.305398 0.305691
0 0 0 0 0 0 0 0 0 0 0 0 0 0 0 0 0 0 0 0 0.0121922 0.144342 0.274597 0.298808 0.298641 0.298462 0.298194 0.298004 0.297841 0.297574 0.297405 0.297187 0.29693 0.29681 0.296579 0.296366 0.296212 0.295979 0.295721 0.295595 0.295326 0.295241 0.294933 0.294702 0.294573 0.294355 0.294185 0.293976 0.293738 0.293585 0.293337 0.293203 0.293008 0.292832 0.292616 0.292331 0.292189 0.291994 0.29175 0.291607 0.291486 0.291294 0.291082 0.290964 0.290712 0.290537 0.290322 0.290126 0.289966 0.289748 0.289634 0.289456 0.289222 0.28907 0.288869 0.288646 0.288456 0.288355 0.288226 0.288015 0.287804 0.287646 0.287483 0.287214 0.287123 0.286837 0.286796 0.286669 0.286428 0.286234 0.286054 0.285919 0.285767 0.285569 0.285379 0.285245 0.285039 0.284832 0.284729 0.284547 0.284361 0.284219 0.284101 0.283919 0.283668 0.283567 0.283419 0.28328 0.283065 0.282985 0.282752 0.282667 0.282474 0.282338 0.28218 0.28202 0.281907 0.281704 0.281556 0.281472 0.281302 0.281085 0.280993 0.28075 0.280638 0.280583 0.28036 0.280227 0.280134 0.279836 0.279757 0.279648 0.279483 0.279338 0.279307 0.279012 0.278895 0.278756 0.278607 0.278564 0.27839 0.278307 0.278077 0.277994 0.277917 0.277615 0.277553 0.27743 0.277329 0.277153 0.27704 0.276956 0.276754 0.276696 0.276513 0.27634 0.276282 0.27619 0.276065 0.275944 0.275773 0.275619 0.275564 0.275412 0.275311 0.2752 0.275037 0.27495 0.274777 0.274703 0.274598 0.274453 0.274381 0.274185 0.274112 0.274028 0.273888 0.273856 0.273672 0.273628 0.273427 0.273324 0.273234 0.27316 0.273016 0.272997 0.272855 0.272716 0.272601 0.2725 0.272381 0.272291 0.272306 0.272174 0.271994 0.27194 0.271827 0.271773 0.27164 0.271547 0.271474 0.271368 0.27128 0.27115 0.271064 0.271012 0.270885 0.270829 0.27074 0.270643 0.270514 0.270513 0.270441 0.270253 0.270042 0.249264 0.240089 0.239487 0.239076 0.238749 0.238725 0.238896 0.239093 0.239402 0.239999 0.240658 0.241375 0.242385 0.243148 0.244016 0.244679 0.244976 0.245332 0.245592 0.245744 0.245821 0.245858 0.246069 0.246351 0.246354 0.246201 0.24606 0.245902 0.245728 0.245545 0.245346 0.245191 0.245065 0.244923 0.244785 0.244664 0.244535 0.244463 0.244417 0.244365 0.244322 0.244275 0.244234 0.244243 0.244269 0.244304 0.244344 0.244367 0.244405 0.244472 0.244593 0.244714 0.244834 0.244951 0.245069 0.245245 0.245442 0.245645 0.245857 0.246076 0.246317 0.246606 0.246936 0.247254 0.247569 0.247927 0.248418 0.248889 0.249334 0.249828 0.250496 0.251153 0.251844 0.252829 0.253889 0.255444 0.260089 0.266144 0.266062 0.266048 0.266089 0.266051 0.265932 0.266044 0.266003 0.265969 0.266009 0.265998 0.265896 0.265927 0.265868 0.265941 0.265901 0.265903 0.265861 0.265833 0.265839 0.265811 0.265811 0.265843 0.265877 0.2658 0.265851 0.265771 0.265795 0.265743 0.265821 0.265809 0.265854 0.265836 0.265812 0.265806 0.26592 0.265846 0.265841 0.265867 0.265847 0.265889 0.265856 0.265828 0.265923 0.26585 0.265907 0.265941 0.265996 0.265996 0.266027 0.266048 0.266088 0.266056 0.266069 0.266106 0.266172 0.266117 0.266149 0.266193 0.266173 0.266237 0.266223 0.26636 0.266365 0.266372 0.266382 0.266428 0.266456 0.266414 0.266492 0.26658 0.266615 0.266526 0.266575 0.266662 0.266715 0.266716 0.266811 0.266805 0.266849 0.266903 0.266945 0.267033 0.26695 0.26707 0.267119 0.267182 0.267216 0.267336 0.267328 0.267484 0.267432 0.267404 0.267557 0.267545 0.267627 0.267729 0.267749 0.267863 0.267904 0.267925 0.267933 0.267971 0.268065 0.268125 0.268213 0.2683 0.268345 0.268408 0.268478 0.268537 0.268679 0.268637 0.268731 0.268804 0.268881 0.268942 0.269008 0.269058 0.269162 0.269167 0.269334 0.269378 0.269447 0.269511 0.269573 0.269631 0.269752 0.269779 0.269333 0.268461 0.267589 0.266756 0.266299 0.26588 0.265495 0.265178 0.26487 0.264553 0.264261 0.263964 0.263664 0.263375 0.26311 0.262879 0.262678 0.262449 0.262254 0.262021 0.261826 0.261641 0.261427 0.261241 0.261122 0.260973 0.260844 0.260709 0.260603 0.260487 0.260376 0.260283 0.260201 0.260171 0.260142 0.260122 0.260097 0.260086 0.260074 0.260051 0.260043 0.260032 0.260021 0.260052 0.26008 0.260113 0.260159 0.260186 0.26022 0.260255 0.260292 0.260335 0.260391 0.260466 0.260548 0.26064 0.260727 0.260805 0.260904 0.260987 0.26108 0.261168 0.261285 0.261422 0.261572 0.261714 0.261848 0.261987 0.262127 0.262284 0.262418 0.262577 0.262782 0.262968 0.263167 0.263359 0.263557 0.263771 0.26397 0.264183 0.264411 0.264658 0.264917 0.265184 0.265445 0.265731 0.265987 0.266257 0.266537 0.266855 0.26721 0.2676 0.267983 0.268422 0.268837 0.269268 0.26978 0.270387 0.271001 0.271591 0.272226 0.272787 0.273587 0.274421 0.275244 0.276171 0.277082 0.27831 0.280353 0.282241 0.283144 0.283262 0.283478 0.283483 0.283811 0.283901 0.28404 0.284249 0.284378 0.284505 0.284823 0.284836 0.285089 0.285249 0.285314 0.285618 0.285796 0.285935 0.286113 0.286256 0.286435 0.286587 0.286718 0.286996 0.287135 0.287294 0.287396 0.287624 0.287837 0.287893 0.288196 0.288334 0.288513 0.288733 0.288838 0.289118 0.289321 0.289457 0.289603 0.289768 0.289977 0.290239 0.290314 0.290625 0.290691 0.290895 0.291084 0.29125 0.291508 0.29164 0.291819 0.292069 0.292212 0.292435 0.292624 0.292797 0.29304 0.293116 0.293396 0.293535 0.293727 0.293975 0.294205 0.294354 0.294596 0.294744 0.294976 0.295153 0.295448 0.295569 0.295737 0.29599 0.296148 0.296315 0.296609 0.296708 0.297016 0.297258 0.297365 0.297636 0.297732 0.298056 0.298217 0.298426 0.298624 0.298795 0.299032 0.299317 0.299469 0.299606 0.299871 0.300113 0.300334 0.300541 0.300829 0.301049 0.301181 0.301459 0.301756 0.301889 0.302064 0.302297 0.30253 0.302755 0.302909 0.303149 0.303401 0.30362 0.303902
0 0 0 0 0 0 0 0 0 0 0 0 0 0 0 0 0 0 0.0020233 0.107252 0.267308 0.297531 0.297319 0.29711 0.296913 0.296722 0.296496 0.296264 0.296097 0.295881 0.29569 0.29548 0.295258 0.295027 0.294886 0.294693 0.29449 0.294211 0.2941 0.293858 0.293669 0.293459 0.293221 0.293076 0.292883 0.292662 0.29251 0.292266 0.291988 0.29193 0.291713 0.291473 0.291295 0.291109 0.290917 0.290717 0.290474 0.290373 0.290134 0.289886 0.289804 0.289557 0.289447 0.289262 0.289023 0.288873 0.288706 0.288403 0.288324 0.288082 0.287925 0.287734 0.287561 0.287436 0.287194 0.287044 0.28683 0.286655 0.286442 0.286291 0.286158 0.285999 0.285775 0.285627 0.285443 0.285269 0.285125 0.284943 0.284745 0.284581 0.284363 0.28424 0.284061 0.283916 0.283686 0.283594 0.283359 0.283289 0.28307 0.282834 0.282736 0.282647 0.282465 0.282235 0.28216 0.282001 0.281832 0.281671 0.281533 0.281347 0.281113 0.281024 0.280883 0.280655 0.280579 0.280453 0.280167 0.280123 0.279931 0.279737 0.279651 0.279509 0.279276 0.279199 0.279017 0.278926 0.278736 0.278571 0.278481 0.278329 0.278153 0.277999 0.277859 0.277664 0.277646 0.277432 0.277341 0.277248 0.277041 0.276892 0.27677 0.276606 0.276492 0.276415 0.276245 0.276094 0.27594 0.275866 0.275675 0.275624 0.275407 0.275291 0.275207 0.275094 0.274959 0.274815 0.274694 0.274556 0.274468 0.274274 0.27419 0.274075 0.27395 0.273817 0.273633 0.2736 0.273498 0.27335 0.273264 0.273107 0.273026 0.272926 0.27272 0.272666 0.272552 0.272436 0.272327 0.272192 0.272179 0.272035 0.2719 0.271696 0.271648 0.271625 0.271409 0.271317 0.271285 0.27119 0.271137 0.271032 0.270856 0.270731 0.270695 0.270555 0.270527 0.270439 0.270271 0.270217 0.27004 0.269959 0.269964 0.269791 0.269707 0.26964 0.269527 0.269455 0.269303 0.269244 0.269109 0.269045 0.269054 0.26895 0.268871 0.268822 0.268688 0.268577 0.255674 0.242006 0.240082 0.239696 0.239376 0.239291 0.239478 0.239721 0.239984 0.240395 0.24104 0.241657 0.242169 0.242673 0.243228 0.243687 0.244099 0.244553 0.244905 0.245237 0.24558 0.245916 0.246247 0.246381 0.246284 0.24614 0.245981 0.245819 0.245656 0.245462 0.245306 0.245182 0.245037 0.244916 0.244781 0.24465 0.24458 0.24453 0.244482 0.244438 0.244395 0.244353 0.244357 0.244385 0.244417 0.244454 0.244481 0.244517 0.244605 0.244718 0.244831 0.244945 0.245071 0.245188 0.245357 0.24556 0.245773 0.24598 0.246194 0.24642 0.246728 0.247044 0.247391 0.247705 0.248059 0.248492 0.248963 0.249443 0.249951 0.250606 0.251281 0.251987 0.252934 0.254019 0.255456 0.259772 0.264599 0.264562 0.264581 0.264549 0.264485 0.264462 0.264521 0.264473 0.26442 0.264456 0.264425 0.26437 0.264424 0.264334 0.264364 0.264364 0.264369 0.26436 0.264353 0.264346 0.264308 0.264241 0.264273 0.264382 0.264266 0.264315 0.264299 0.264291 0.264262 0.264319 0.264267 0.264315 0.264382 0.26439 0.264318 0.264287 0.264323 0.264291 0.264371 0.264419 0.264404 0.264345 0.264418 0.264357 0.264361 0.264398 0.264406 0.26446 0.264486 0.264462 0.264488 0.26456 0.264518 0.264589 0.26462 0.264612 0.2646 0.264662 0.264707 0.264688 0.264771 0.26473 0.264836 0.264788 0.264796 0.264844 0.264854 0.264943 0.264974 0.264972 0.265016 0.265009 0.265056 0.265112 0.265104 0.265238 0.265289 0.265243 0.265263 0.265302 0.265414 0.265506 0.265468 0.26549 0.265529 0.265589 0.265674 0.265636 0.265716 0.265803 0.265839 0.265956 0.265944 0.266045 0.266056 0.266049 0.266192 0.266243 0.266216 0.266268 0.266438 0.266418 0.266452 0.266593 0.266548 0.266615 0.266665 0.266749 0.266857 0.266943 0.266932 0.267067 0.267107 0.267203 0.267227 0.267303 0.267334 0.26749 0.267507 0.26755 0.267663 0.267699 0.267784 0.267881 0.267931 0.268132 0.268108 0.268164 0.268279 0.268319 0.268373 0.26852 0.268525 0.267985 0.267145 0.266255 0.265489 0.265157 0.264885 0.264571 0.264293 0.263972 0.263685 0.26339 0.263175 0.262956 0.262737 0.262538 0.262325 0.262121 0.261909 0.261719 0.261525 0.261389 0.261255 0.26111 0.260997 0.260868 0.260735 0.260603 0.260482 0.260356 0.26028 0.260215 0.260166 0.260111 0.260056 0.259995 0.259965 0.259919 0.259884 0.259866 0.259889 0.259912 0.259939 0.259964 0.259998 0.260032 0.260066 0.260114 0.260147 0.260199 0.26029 0.260369 0.260441 0.260528 0.260617 0.260709 0.260802 0.260888 0.260976 0.261073 0.261234 0.261366 0.261508 0.261648 0.261786 0.261929 0.262067 0.262207 0.262374 0.262556 0.26276 0.262957 0.263153 0.263366 0.263553 0.263764 0.26395 0.264182 0.264445 0.26473 0.265012 0.265315 0.265601 0.265929 0.266241 0.266574 0.266957 0.267444 0.267877 0.268324 0.268748 0.269162 0.269591 0.270179 0.270766 0.271381 0.272013 0.272602 0.273247 0.274004 0.274906 0.275755 0.276606 0.278181 0.280351 0.281188 0.281354 0.281435 0.281593 0.281699 0.281953 0.282125 0.282275 0.282479 0.282633 0.282733 0.282886 0.283108 0.283255 0.283426 0.283614 0.283699 0.283947 0.284052 0.284251 0.284467 0.284587 0.284767 0.284896 0.285066 0.285308 0.285428 0.285621 0.285779 0.286012 0.286164 0.286258 0.286455 0.286636 0.28683 0.286971 0.287196 0.287416 0.287536 0.287746 0.287886 0.288103 0.288318 0.288502 0.288599 0.288827 0.289022 0.289174 0.289448 0.28958 0.289726 0.290032 0.290147 0.290298 0.290491 0.290732 0.290877 0.291041 0.291326 0.29158 0.291712 0.291856 0.29204 0.292268 0.292469 0.292635 0.292814 0.293042 0.293257 0.293439 0.29367 0.293857 0.294041 0.294205 0.294437 0.294677 0.294844 0.295059 0.295254 0.295414 0.29567 0.295858 0.296082 0.296282 0.29654 0.296688 0.297029 0.297052 0.297402 0.297498 0.297696 0.297916 0.298202 0.298335 0.298582 0.298796 0.298971 0.29925 0.299521 0.299683 0.299958 0.300041 0.300276 0.300595 0.300699 0.300968 0.301125 0.301409 0.301615 0.301839 0.302079
0 0 0 0 0 0 0 0 0 0 0 0 0 0 0 0 0.00402645 0.118839 0.256026 0.296226 0.296147 0.295838 0.295606 0.295362 0.29521 0.294955 0.294817 0.294542 0.294347 0.294233 0.293963 0.293812 0.293602 0.293266 0.293124 0.292918 0.292715 0.292547 0.292322 0.292137 0.291969 0.29174 0.291568 0.291377 0.291152 0.29101 0.290766 0.290526 0.290348 0.290195 0.290091 0.289826 0.28959 0.289449 0.289274 0.289083 0.28885 0.288687 0.288514 0.288315 0.288027 0.287931 0.287733 0.287537 0.287373 0.287222 0.287036 0.286822 0.286611 0.286498 0.286241 0.286079 0.285947 0.285681 0.28561 0.285349 0.285163 0.285058 0.284827 0.284622 0.284447 0.284293 0.284136 0.283941 0.283794 0.283678 0.283508 0.283242 0.283108 0.282912 0.28284 0.282592 0.282491 0.282245 0.282181 0.28198 0.281798 0.281567 0.281402 0.281309 0.281088 0.280969 0.280771 0.280761 0.280506 0.280343 0.280166 0.280067 0.279825 0.279721 0.279636 0.27941 0.279226 0.279097 0.278854 0.278807 0.278623 0.278541 0.278403 0.278264 0.278092 0.277901 0.277759 0.277549 0.277398 0.277317 0.277178 0.277002 0.276805 0.276728 0.276623 0.276385 0.276314 0.276159 0.275998 0.275882 0.275695 0.275667 0.275438 0.275357 0.275186 0.275007 0.274939 0.274838 0.274781 0.274513 0.27438 0.274291 0.274117 0.273987 0.273881 0.273752 0.273599 0.273546 0.273369 0.273267 0.273117 0.272995 0.272838 0.272794 0.272635 0.27242 0.272362 0.272166 0.272115 0.272109 0.271884 0.27188 0.271762 0.271549 0.271488 0.271294 0.271196 0.271183 0.271047 0.270923 0.270783 0.270702 0.270528 0.27045 0.270327 0.27025 0.270197 0.269994 0.269987 0.269803 0.269689 0.269676 0.269518 0.269515 0.269333 0.269222 0.269122 0.269069 0.268977 0.268816 0.26877 0.268615 0.268579 0.268372 0.268366 0.268259 0.268197 0.268149 0.268007 0.267879 0.267776 0.267692 0.26765 0.267558 0.267428 0.267419 0.267267 0.267265 0.267131 0.267111 0.26698 0.264825 0.251394 0.241265 0.24028 0.239987 0.239946 0.240099 0.240363 0.240651 0.24092 0.241399 0.241927 0.242434 0.242914 0.243397 0.243802 0.244239 0.244651 0.245027 0.245392 0.245752 0.246097 0.246348 0.246326 0.246214 0.246065 0.245898 0.245755 0.245573 0.245426 0.245287 0.24517 0.245033 0.244893 0.244774 0.244695 0.244649 0.244605 0.244558 0.244515 0.244467 0.244469 0.244504 0.244537 0.24457 0.244604 0.244648 0.244723 0.244838 0.244944 0.245069 0.245184 0.245299 0.245476 0.245684 0.2459 0.246104 0.24631 0.246543 0.246853 0.24719 0.247496 0.247807 0.24818 0.248621 0.249098 0.249557 0.250065 0.250737 0.251402 0.252139 0.25304 0.25415 0.255502 0.259413 0.263149 0.263069 0.263047 0.263044 0.263044 0.262999 0.263014 0.262982 0.263012 0.262916 0.262949 0.262919 0.262854 0.262868 0.262906 0.262889 0.262852 0.262859 0.262819 0.26286 0.262793 0.26282 0.262839 0.262727 0.262829 0.262752 0.262743 0.262844 0.262814 0.262822 0.262778 0.262843 0.262764 0.262779 0.262823 0.262803 0.262866 0.262838 0.26281 0.262805 0.262893 0.262822 0.262884 0.262934 0.26293 0.262884 0.262918 0.262967 0.262994 0.262996 0.26294 0.26301 0.263065 0.263058 0.263128 0.26314 0.263088 0.263198 0.263162 0.263204 0.26325 0.263227 0.26327 0.263252 0.263341 0.263302 0.263342 0.263461 0.26346 0.263482 0.263456 0.263543 0.263612 0.263702 0.263642 0.263652 0.263675 0.263719 0.263788 0.263875 0.263857 0.263903 0.26402 0.264037 0.264016 0.264054 0.264101 0.264191 0.264298 0.264223 0.26432 0.264389 0.264387 0.264518 0.264575 0.26463 0.264635 0.264704 0.264769 0.26478 0.264833 0.264919 0.264966 0.264972 0.26507 0.265155 0.265279 0.265305 0.265352 0.265394 0.265506 0.26549 0.265611 0.265598 0.265725 0.265863 0.2659 0.265964 0.266103 0.266043 0.266189 0.26629 0.266231 0.266384 0.266465 0.266507 0.266641 0.266612 0.26677 0.266826 0.266894 0.266923 0.267105 0.267139 0.267265 0.267283 0.267268 0.266797 0.266304 0.265473 0.264683 0.264275 0.263971 0.263688 0.263454 0.263255 0.263041 0.262827 0.262618 0.262392 0.262197 0.262001 0.261802 0.261666 0.261539 0.261406 0.261272 0.26114 0.261016 0.260878 0.260757 0.260639 0.260553 0.260499 0.260435 0.260377 0.260319 0.260265 0.260211 0.260148 0.260085 0.260034 0.260035 0.260042 0.26006 0.260074 0.260071 0.260086 0.260098 0.2601 0.260117 0.260161 0.260236 0.260299 0.260388 0.260462 0.260547 0.260617 0.260698 0.260786 0.260871 0.260976 0.261114 0.261256 0.261403 0.26155 0.261688 0.261848 0.261983 0.26214 0.2623 0.262485 0.262717 0.262936 0.263153 0.263384 0.263623 0.263842 0.264082 0.264321 0.264599 0.264947 0.265249 0.265591 0.265912 0.266238 0.266562 0.266892 0.267321 0.267731 0.268189 0.26863 0.269069 0.269525 0.270018 0.270559 0.271149 0.271782 0.272378 0.272959 0.273652 0.274458 0.275699 0.277238 0.278601 0.279255 0.279307 0.279588 0.27971 0.279865 0.280026 0.280213 0.280422 0.280515 0.280683 0.280879 0.281009 0.281143 0.28133 0.281468 0.28155 0.281841 0.281963 0.28212 0.282273 0.282353 0.282584 0.282812 0.282988 0.283107 0.283319 0.283493 0.283587 0.283819 0.283997 0.284119 0.284321 0.284513 0.284706 0.284789 0.285064 0.28529 0.285341 0.28549 0.285735 0.285908 0.286106 0.286242 0.28651 0.286657 0.286774 0.287053 0.287149 0.28732 0.287527 0.287756 0.28795 0.288114 0.288249 0.288472 0.288616 0.288844 0.289074 0.289193 0.289509 0.289643 0.289823 0.290059 0.290133 0.290448 0.290609 0.290798 0.290952 0.291106 0.291348 0.291565 0.291797 0.29192 0.292122 0.292297 0.292509 0.292775 0.29298 0.29324 0.293402 0.293596 0.293716 0.293898 0.294096 0.294402 0.294577 0.294788 0.29499 0.295218 0.295418 0.2956 0.295762 0.296019 0.296255 0.296408 0.296727 0.296847 0.297033 0.297261 0.297522 0.297789 0.297965 0.298115 0.298352 0.298623 0.298869 0.299032 0.299278 0.299441 0.299695 0.299884 0.300058 0.300314
0 0 0 0 0 0 0 0 0 0 0 0 0 0 0 0.100282 0.230759 0.294993 0.29479 0.294584 0.294411 0.294135 0.29389 0.293642 0.293497 0.293245 0.293086 0.292869 0.292706 0.292493 0.292295 0.292016 0.291894 0.291731 0.29148 0.291327 0.290978 0.290879 0.290708 0.29046 0.290357 0.290083 0.289874 0.289683 0.289514 0.289263 0.28912 0.288966 0.288698 0.28857 0.28834 0.2882 0.287973 0.287775 0.287596 0.287348 0.287206 0.287035 0.286813 0.286647 0.286436 0.286269 0.286128 0.285855 0.285708 0.285588 0.285352 0.285167 0.28505 0.284845 0.284685 0.284403 0.2842 0.284046 0.2839 0.283774 0.283597 0.283422 0.283261 0.283015 0.282871 0.282679 0.282501 0.28242 0.282165 0.281984 0.281835 0.281712 0.281453 0.281333 0.281199 0.28096 0.280832 0.280647 0.28056 0.28038 0.280116 0.280012 0.279863 0.279685 0.279507 0.279383 0.279259 0.27898 0.278919 0.278725 0.278572 0.278496 0.27829 0.278165 0.277963 0.277861 0.277729 0.277543 0.277305 0.277211 0.277025 0.276865 0.276788 0.276557 0.276433 0.276388 0.276107 0.276039 0.27587 0.275773 0.275557 0.275394 0.27526 0.275157 0.275046 0.274907 0.274747 0.27456 0.274424 0.274351 0.274207 0.274064 0.273859 0.273759 0.27364 0.273462 0.273328 0.273189 0.273064 0.273034 0.272786 0.272763 0.272604 0.272417 0.272346 0.272144 0.272029 0.271979 0.27187 0.271679 0.271575 0.271483 0.271267 0.2712 0.27107 0.270999 0.270871 0.270794 0.270602 0.270493 0.270316 0.270234 0.270132 0.270097 0.269917 0.269837 0.269742 0.269561 0.269438 0.269335 0.269198 0.269172 0.269067 0.268977 0.268838 0.268738 0.268604 0.268502 0.268497 0.268257 0.268208 0.268103 0.268044 0.267922 0.267834 0.267688 0.26757 0.267561 0.267429 0.267348 0.267215 0.267145 0.267059 0.266914 0.26686 0.266731 0.266584 0.266638 0.266506 0.266384 0.266294 0.266216 0.266112 0.266001 0.265931 0.265931 0.26581 0.265708 0.265679 0.26555 0.265489 0.26534 0.265307 0.26237 0.249829 0.241831 0.240959 0.240701 0.240811 0.241055 0.241313 0.241615 0.241949 0.242332 0.242757 0.243184 0.243607 0.243995 0.244439 0.244819 0.245199 0.245611 0.246095 0.246433 0.246419 0.24633 0.246152 0.245998 0.245844 0.245686 0.245538 0.245417 0.245269 0.24514 0.245014 0.244895 0.244812 0.244774 0.244726 0.244672 0.24463 0.244584 0.244586 0.24462 0.244658 0.244691 0.24472 0.244757 0.244837 0.244951 0.245076 0.245183 0.245303 0.245418 0.245595 0.245798 0.246014 0.246229 0.246432 0.246658 0.246976 0.247302 0.247635 0.247923 0.248294 0.248751 0.249204 0.249705 0.250167 0.25084 0.251519 0.252221 0.253235 0.25426 0.255697 0.258993 0.261655 0.261637 0.261544 0.26155 0.261579 0.261565 0.261529 0.261413 0.261444 0.261536 0.261435 0.261503 0.261348 0.261345 0.261349 0.261451 0.261374 0.261385 0.26132 0.261339 0.261302 0.261383 0.261332 0.261302 0.261299 0.26124 0.261242 0.261364 0.261315 0.261315 0.261347 0.261324 0.261361 0.26134 0.261321 0.261307 0.261381 0.26134 0.261391 0.261384 0.261384 0.261365 0.261414 0.261466 0.261397 0.261467 0.261508 0.261488 0.261477 0.261511 0.261487 0.261502 0.261582 0.261589 0.26165 0.261618 0.26162 0.261667 0.261671 0.261724 0.261732 0.261722 0.261791 0.261721 0.261816 0.261904 0.261932 0.261946 0.261966 0.262034 0.262063 0.262069 0.262098 0.262109 0.262204 0.262192 0.262337 0.262236 0.262302 0.262329 0.262316 0.262422 0.262464 0.262549 0.262522 0.262633 0.262682 0.262713 0.262737 0.26271 0.262796 0.262864 0.262979 0.263036 0.263025 0.263061 0.263133 0.263212 0.263286 0.263278 0.263351 0.26342 0.263468 0.263601 0.263654 0.263654 0.263671 0.263778 0.2638 0.263903 0.26395 0.264052 0.264078 0.264167 0.264284 0.26427 0.264467 0.264501 0.264528 0.264576 0.264653 0.264718 0.264732 0.264925 0.264957 0.265001 0.265109 0.265131 0.265237 0.265319 0.26535 0.265467 0.265579 0.265642 0.265731 0.26577 0.265856 0.266024 0.266074 0.266193 0.266232 0.26599 0.26535 0.264742 0.264202 0.263661 0.26334 0.263114 0.262907 0.262711 0.262493 0.262264 0.262092 0.261951 0.261826 0.261687 0.261555 0.26143 0.261291 0.261158 0.261038 0.260955 0.26085 0.260769 0.260696 0.260641 0.260588 0.260528 0.260475 0.260412 0.260353 0.26032 0.260309 0.260316 0.260326 0.260337 0.260349 0.260362 0.260362 0.260382 0.260379 0.260417 0.260486 0.260552 0.260643 0.260714 0.260793 0.260869 0.260957 0.261021 0.261101 0.261201 0.261364 0.261506 0.261649 0.26179 0.261947 0.262098 0.262258 0.262393 0.262556 0.262774 0.26301 0.263223 0.263445 0.263676 0.263902 0.264134 0.264378 0.264627 0.26492 0.265259 0.265578 0.265893 0.266222 0.266545 0.26688 0.267204 0.26765 0.268078 0.268539 0.26896 0.26941 0.269863 0.27034 0.27095 0.271559 0.272186 0.272768 0.273691 0.274975 0.27641 0.277252 0.277383 0.277494 0.277674 0.277728 0.277997 0.278143 0.278366 0.278455 0.278569 0.278683 0.278896 0.279064 0.279228 0.279345 0.27959 0.279732 0.279847 0.280046 0.280092 0.28029 0.280483 0.280695 0.280832 0.281008 0.281189 0.281384 0.281487 0.281677 0.28183 0.281952 0.282196 0.282311 0.282508 0.282705 0.28293 0.283053 0.283254 0.283355 0.283653 0.283744 0.283863 0.284069 0.284255 0.284527 0.284697 0.284776 0.285039 0.285201 0.285392 0.285588 0.285636 0.285889 0.286124 0.286202 0.286433 0.286645 0.286859 0.287035 0.287243 0.28736 0.287579 0.287717 0.288023 0.288185 0.288361 0.288583 0.288731 0.288824 0.289063 0.28935 0.289504 0.289652 0.289827 0.290124 0.290309 0.290399 0.290659 0.290847 0.291132 0.291263 0.291432 0.291706 0.291887 0.29207 0.292255 0.292491 0.292719 0.292845 0.293143 0.293289 0.293433 0.29368 0.294044 0.294119 0.294396 0.294581 0.294705 0.294982 0.2952 0.295444 0.295639 0.295795 0.296057 0.296209 0.296418 0.2967 0.296828 0.297077 0.297319 0.297477 0.297738 0.297915 0.298146 0.298355 0.298661
0 0 0 0 0 0 0 0 0 0 0 0 0 0.0718782 0.205768 0.29368 0.293523 0.293252 0.293061 0.292945 0.292664 0.292466 0.29227 0.292054 0.291801 0.291721 0.291362 0.291191 0.290958 0.290863 0.290593 0.29038 0.290212 0.290008 0.289816 0.289592 0.289352 0.289293 0.288979 0.288775 0.288625 0.288437 0.288297 0.288087 0.287844 0.287689 0.287503 0.287315 0.28706 0.286917 0.286684 0.286514 0.286269 0.286124 0.285885 0.285783 0.285562 0.285343 0.285242 0.285087 0.284799 0.28466 0.284479 0.284227 0.284098 0.283939 0.283676 0.283552 0.283342 0.283137 0.28305 0.282892 0.282636 0.282559 0.282288 0.282148 0.281959 0.281822 0.281636 0.281433 0.281283 0.281086 0.280819 0.280779 0.280596 0.2804 0.280273 0.280112 0.279911 0.279721 0.279568 0.279432 0.279229 0.279128 0.278894 0.278722 0.278579 0.278387 0.278223 0.278087 0.277968 0.277765 0.277747 0.277466 0.277337 0.277127 0.277026 0.276755 0.276718 0.276493 0.276345 0.276301 0.276105 0.275993 0.275776 0.275607 0.275489 0.275325 0.275147 0.275051 0.274894 0.274761 0.274637 0.274506 0.27431 0.274148 0.273998 0.273855 0.273747 0.273589 0.273556 0.273373 0.273263 0.273085 0.272886 0.272771 0.272669 0.272536 0.272437 0.27227 0.272091 0.27203 0.271722 0.271712 0.271575 0.271471 0.271326 0.271142 0.271028 0.270813 0.270741 0.270685 0.270612 0.27045 0.270283 0.270185 0.269974 0.269944 0.269762 0.269664 0.269536 0.269486 0.269366 0.269178 0.269132 0.268985 0.268831 0.268809 0.268648 0.268526 0.268471 0.268252 0.268205 0.268021 0.268003 0.267879 0.26777 0.267586 0.267563 0.267358 0.267292 0.267235 0.267161 0.267034 0.266906 0.266812 0.266721 0.266528 0.266478 0.266415 0.266251 0.266174 0.266101 0.266064 0.265873 0.265759 0.265708 0.265597 0.265568 0.265505 0.265354 0.265239 0.265186 0.265082 0.264958 0.264961 0.264829 0.264772 0.264634 0.264539 0.264543 0.264359 0.264335 0.264216 0.264147 0.264089 0.264038 0.263853 0.263847 0.263731 0.263656 0.260231 0.249331 0.244241 0.241872 0.241715 0.241815 0.242096 0.242444 0.242782 0.2431 0.243466 0.24389 0.244257 0.244629 0.245034 0.245487 0.246099 0.246559 0.246688 0.246629 0.246484 0.246289 0.246114 0.245947 0.245793 0.245654 0.245526 0.245391 0.245262 0.24513 0.245008 0.244935 0.244887 0.244841 0.244794 0.244749 0.244703 0.244715 0.244742 0.244778 0.244809 0.244843 0.244876 0.244956 0.245065 0.245192 0.245302 0.245426 0.24554 0.245707 0.245921 0.246132 0.246343 0.246553 0.246786 0.247086 0.24742 0.247728 0.248075 0.248404 0.248871 0.249365 0.249808 0.250324 0.250971 0.251647 0.252357 0.253299 0.254367 0.25585 0.258872 0.260139 0.26015 0.260125 0.260135 0.260117 0.260041 0.260079 0.260009 0.259981 0.260093 0.259951 0.259895 0.260017 0.259891 0.259955 0.259872 0.259874 0.259855 0.259911 0.259923 0.259896 0.25989 0.259867 0.259823 0.259853 0.2599 0.259901 0.259838 0.259839 0.259852 0.259856 0.259818 0.259857 0.259882 0.259806 0.260007 0.259926 0.259906 0.259946 0.259885 0.259926 0.259919 0.259975 0.259897 0.260063 0.25997 0.259955 0.260039 0.260034 0.260031 0.260032 0.260127 0.260068 0.260071 0.260087 0.260121 0.260189 0.260228 0.260225 0.260226 0.260303 0.26026 0.260332 0.260289 0.260298 0.260404 0.260448 0.260471 0.260489 0.260492 0.260567 0.260593 0.260637 0.26064 0.260738 0.260741 0.260834 0.260784 0.26084 0.260964 0.260896 0.260966 0.260945 0.261026 0.261122 0.261126 0.261145 0.261273 0.26125 0.261303 0.261416 0.261374 0.261504 0.261524 0.261548 0.261611 0.261674 0.261692 0.261816 0.261821 0.261891 0.261907 0.261963 0.262061 0.262105 0.262194 0.262199 0.26232 0.262351 0.262408 0.262474 0.262561 0.262637 0.262711 0.262797 0.262876 0.262901 0.262992 0.262977 0.26306 0.263145 0.263291 0.263369 0.263377 0.263401 0.26355 0.263597 0.263725 0.263765 0.263764 0.263859 0.264041 0.264107 0.264129 0.26426 0.264304 0.264403 0.264429 0.264566 0.264623 0.264703 0.264793 0.264899 0.265015 0.265038 0.265018 0.264894 0.264639 0.264117 0.263618 0.263195 0.26268 0.2624 0.26223 0.262087 0.261977 0.261827 0.261699 0.261567 0.261442 0.261318 0.261178 0.261103 0.261044 0.260993 0.260937 0.260871 0.260794 0.260748 0.260699 0.26062 0.260596 0.260611 0.260603 0.260604 0.260606 0.260609 0.260632 0.260639 0.260645 0.260664 0.260698 0.260776 0.260831 0.260909 0.260992 0.261062 0.261148 0.261218 0.261298 0.261383 0.261481 0.261633 0.261779 0.261946 0.262065 0.26223 0.262376 0.262525 0.262689 0.262827 0.263069 0.263283 0.263525 0.263742 0.263969 0.264208 0.264421 0.264662 0.264933 0.265259 0.265563 0.265909 0.266215 0.26654 0.266845 0.267192 0.267578 0.267969 0.268428 0.268869 0.269318 0.269762 0.270211 0.270731 0.271771 0.272892 0.273817 0.274827 0.275125 0.275377 0.275504 0.275633 0.275841 0.275957 0.276055 0.276183 0.276375 0.276499 0.276736 0.27696 0.276972 0.277149 0.277374 0.277468 0.277586 0.277831 0.277979 0.278064 0.278204 0.278439 0.278573 0.278774 0.278968 0.279095 0.279263 0.279426 0.279598 0.279727 0.279914 0.280049 0.280255 0.280494 0.280535 0.280715 0.280916 0.281131 0.281279 0.281513 0.281608 0.281702 0.28199 0.28214 0.282308 0.282477 0.282643 0.282859 0.283005 0.283243 0.283385 0.283591 0.283705 0.283941 0.284097 0.284285 0.284492 0.284615 0.28489 0.284995 0.285207 0.285357 0.285541 0.285688 0.285977 0.286176 0.286291 0.286487 0.286717 0.286879 0.287119 0.287313 0.287477 0.287647 0.287893 0.288053 0.288261 0.28847 0.288613 0.288744 0.288988 0.289243 0.289359 0.289612 0.289895 0.290013 0.290166 0.290473 0.290544 0.290873 0.291035 0.291256 0.291401 0.291675 0.291882 0.292076 0.292188 0.292468 0.292621 0.292878 0.293082 0.293262 0.293568 0.293716 0.293952 0.294134 0.294292 0.294523 0.294741 0.294961 0.295135 0.295292 0.295621 0.295842 0.296 0.296265 0.296419 0.29665 0.296941
0 0 0 0 0 0 0 0 0 0 0 0.0457203 0.181018 0.290432 0.292256 0.292047 0.291841 0.291609 0.291374 0.291223 0.29103 0.290815 0.290571 0.290395 0.290162 0.289865 0.289791 0.289539 0.289318 0.289221 0.288999 0.288802 0.288539 0.288381 0.288205 0.287938 0.287727 0.287582 0.287427 0.287265 0.286954 0.286809 0.286569 0.286408 0.286159 0.286017 0.285833 0.285685 0.285432 0.285249 0.285074 0.284972 0.284754 0.284512 0.284338 0.284116 0.283939 0.283799 0.283584 0.283443 0.283309 0.283034 0.282834 0.282623 0.282494 0.28238 0.282196 0.28201 0.281734 0.281572 0.281414 0.281239 0.281084 0.280953 0.280707 0.280569 0.280376 0.280192 0.279963 0.279858 0.2797 0.279496 0.279365 0.279193 0.279009 0.278765 0.278637 0.278548 0.27839 0.278164 0.278029 0.277855 0.277717 0.27754 0.277339 0.277176 0.277044 0.27688 0.276689 0.276551 0.276354 0.276227 0.276166 0.275907 0.275781 0.275684 0.275516 0.27531 0.275164 0.27499 0.274814 0.274694 0.274513 0.274436 0.274242 0.274112 0.273919 0.273817 0.273626 0.273494 0.273344 0.273167 0.273069 0.272968 0.272792 0.272717 0.272506 0.272372 0.272224 0.272112 0.271944 0.271856 0.271685 0.2715 0.271418 0.271224 0.271076 0.270955 0.270792 0.270709 0.270628 0.270411 0.270304 0.270162 0.270031 0.26988 0.269753 0.2697 0.269562 0.269466 0.269275 0.269165 0.269032 0.268902 0.268844 0.268652 0.268572 0.268387 0.268312 0.268158 0.26808 0.267942 0.267858 0.267692 0.267534 0.267423 0.26728 0.267282 0.267174 0.267076 0.266923 0.266748 0.266672 0.266557 0.266418 0.26631 0.266178 0.26617 0.266056 0.265959 0.265784 0.265676 0.265612 0.265537 0.2654 0.26534 0.265227 0.265021 0.265017 0.264886 0.264855 0.26478 0.264678 0.264493 0.264411 0.264349 0.264212 0.264157 0.264024 0.263986 0.263886 0.263742 0.263699 0.263612 0.263472 0.263499 0.263364 0.263268 0.263227 0.263065 0.263002 0.26292 0.262893 0.262777 0.262606 0.262607 0.262521 0.262464 0.262377 0.262312 0.26223 0.262149 0.262064 0.261942 0.257213 0.251553 0.246439 0.244648 0.243723 0.243496 0.243792 0.243998 0.244385 0.244762 0.245117 0.245567 0.246087 0.246655 0.246972 0.246916 0.246823 0.24666 0.246454 0.246247 0.246089 0.245917 0.245776 0.24564 0.24551 0.245387 0.245252 0.245124 0.245061 0.245009 0.24496 0.244911 0.244868 0.244823 0.24483 0.244857 0.244894 0.244931 0.244964 0.245 0.245073 0.245182 0.245304 0.245422 0.245543 0.245669 0.245845 0.246048 0.246256 0.246459 0.24667 0.246905 0.247235 0.247527 0.247861 0.248194 0.248539 0.249004 0.249479 0.249952 0.250418 0.251091 0.251798 0.252468 0.253452 0.254534 0.256068 0.258109 0.258688 0.258722 0.25867 0.258588 0.258641 0.258584 0.258568 0.258503 0.258629 0.258502 0.258551 0.258516 0.258513 0.25852 0.258449 0.258498 0.258444 0.258508 0.258464 0.258448 0.258419 0.258412 0.258484 0.258459 0.258422 0.258326 0.258484 0.258451 0.258439 0.25839 0.25841 0.258361 0.258435 0.258454 0.258453 0.258366 0.258485 0.25843 0.258444 0.258492 0.258477 0.258538 0.258447 0.258435 0.258548 0.258566 0.258512 0.25853 0.25862 0.25858 0.258609 0.25861 0.258715 0.258624 0.258689 0.258721 0.258737 0.258688 0.258823 0.258824 0.258827 0.258871 0.25891 0.258909 0.258893 0.258941 0.258957 0.258987 0.259043 0.259075 0.259151 0.259177 0.259192 0.259171 0.259211 0.259264 0.259357 0.259346 0.259425 0.259444 0.259446 0.25957 0.259519 0.259609 0.25963 0.259733 0.259747 0.259849 0.259858 0.259804 0.259973 0.259945 0.260022 0.260117 0.260059 0.260182 0.260277 0.26024 0.260243 0.26036 0.260467 0.260503 0.260634 0.260605 0.260731 0.260724 0.260789 0.260836 0.260909 0.260981 0.261033 0.261137 0.26117 0.261201 0.261268 0.261381 0.261447 0.261513 0.261508 0.261647 0.261705 0.261775 0.261823 0.26195 0.262071 0.26206 0.262054 0.262211 0.262271 0.262356 0.262393 0.26254 0.262605 0.262635 0.262797 0.262839 0.262906 0.263083 0.263124 0.263192 0.263232 0.263384 0.263472 0.263507 0.263596 0.263706 0.263773 0.263903 0.264004 0.264113 0.264146 0.264127 0.263925 0.263551 0.263317 0.263032 0.262742 0.26221 0.261981 0.261769 0.26159 0.261472 0.261382 0.261328 0.261271 0.261216 0.261139 0.261079 0.261019 0.260962 0.260907 0.260864 0.260869 0.26086 0.260876 0.260889 0.260899 0.260912 0.260912 0.260913 0.260941 0.260973 0.261031 0.261106 0.261187 0.261271 0.261331 0.261421 0.261487 0.261569 0.261655 0.261779 0.261931 0.262067 0.262228 0.262357 0.26251 0.262647 0.262808 0.262955 0.263138 0.263345 0.263594 0.263812 0.264032 0.264259 0.264494 0.264735 0.264932 0.26524 0.265541 0.265873 0.2662 0.266535 0.266854 0.267164 0.267501 0.267923 0.268345 0.268935 0.269873 0.270396 0.27121 0.271916 0.272745 0.273069 0.273229 0.273397 0.273498 0.273642 0.273784 0.273968 0.274093 0.274242 0.274319 0.274545 0.274714 0.274762 0.274985 0.275135 0.275314 0.275481 0.275591 0.275782 0.275912 0.276073 0.276219 0.276374 0.276594 0.276741 0.276935 0.277062 0.277211 0.277269 0.27757 0.27767 0.277829 0.278016 0.278156 0.27835 0.278557 0.278664 0.278895 0.279032 0.279133 0.27944 0.279493 0.279708 0.279835 0.279979 0.280218 0.280399 0.280558 0.280742 0.28089 0.281051 0.281224 0.28144 0.281597 0.281785 0.282002 0.282189 0.282234 0.282456 0.282764 0.282947 0.283125 0.283287 0.283395 0.283619 0.283816 0.283941 0.284132 0.284369 0.284519 0.284688 0.284848 0.285031 0.285299 0.285479 0.285603 0.28588 0.286008 0.286208 0.286382 0.286661 0.286774 0.287031 0.287233 0.287452 0.28747 0.287788 0.287952 0.288186 0.288394 0.288545 0.288788 0.288959 0.289157 0.289344 0.289589 0.289743 0.289948 0.290142 0.290376 0.290616 0.290808 0.291052 0.291198 0.29139 0.291637 0.291906 0.292019 0.292321 0.292439 0.292607 0.292869 0.293047 0.293265 0.293465 0.293774 0.293897 0.29414 0.294314 0.294578 0.294789 0.295054 0.295265
0 0 0 0 0 0 0 0 0 0.0277086 0.164349 0.287273 0.29109 0.290813 0.290665 0.290427 0.290183 0.289999 0.289822 0.289593 0.289375 0.289199 0.288973 0.28873 0.288578 0.288374 0.288166 0.287947 0.287719 0.287549 0.287301 0.287206 0.286891 0.286807 0.286483 0.286332 0.286152 0.285996 0.285768 0.285611 0.285437 0.285201 0.284989 0.284764 0.28461 0.284365 0.284264 0.284007 0.283871 0.283683 0.283481 0.283311 0.283145 0.282891 0.282685 0.282528 0.282397 0.282226 0.282021 0.281804 0.281687 0.281506 0.281309 0.281111 0.280868 0.280793 0.280554 0.280432 0.280216 0.279982 0.279832 0.279729 0.279525 0.279269 0.279222 0.279025 0.278846 0.278684 0.278455 0.278254 0.278165 0.278006 0.277782 0.277576 0.277469 0.277266 0.277131 0.276871 0.276766 0.276634 0.276486 0.276312 0.276147 0.275995 0.275811 0.275622 0.275389 0.275341 0.275223 0.275007 0.274912 0.274691 0.274521 0.274322 0.274262 0.274071 0.273939 0.273771 0.273543 0.273475 0.273334 0.273122 0.273051 0.272865 0.272694 0.272551 0.272407 0.272253 0.272135 0.272035 0.271864 0.271706 0.271592 0.271455 0.271261 0.271105 0.270988 0.270812 0.270669 0.270555 0.270438 0.270353 0.270124 0.26999 0.269835 0.269664 0.269582 0.26949 0.269342 0.269177 0.269082 0.268932 0.268786 0.268706 0.268544 0.268466 0.268259 0.268145 0.26803 0.267871 0.267787 0.26768 0.267537 0.267407 0.267292 0.267245 0.267027 0.266893 0.266852 0.266678 0.266513 0.266475 0.266346 0.266175 0.266101 0.265987 0.265851 0.265724 0.265683 0.265554 0.265463 0.265336 0.265133 0.265115 0.264947 0.264899 0.264784 0.264723 0.264593 0.264497 0.264259 0.264236 0.264162 0.264111 0.263991 0.263817 0.263725 0.263644 0.263567 0.263408 0.263299 0.263198 0.263128 0.263033 0.262918 0.26292 0.262794 0.262713 0.262621 0.262465 0.262389 0.262332 0.262216 0.262203 0.262032 0.261952 0.261873 0.261734 0.261684 0.261694 0.261547 0.261429 0.26137 0.261289 0.261176 0.261186 0.26108 0.260978 0.260944 0.260846 0.260817 0.260681 0.260555 0.260585 0.260431 0.258238 0.255474 0.254277 0.253178 0.251946 0.25075 0.249884 0.249085 0.249038 0.24863 0.248327 0.248184 0.247865 0.247497 0.247197 0.24701 0.246812 0.246613 0.246416 0.246209 0.246032 0.245896 0.24576 0.245643 0.245503 0.245375 0.245229 0.245179 0.245125 0.245081 0.245034 0.244992 0.244942 0.24495 0.244982 0.245013 0.245052 0.245085 0.245121 0.2452 0.245311 0.245428 0.245548 0.245673 0.245782 0.245961 0.246167 0.246374 0.246575 0.246792 0.247016 0.247342 0.247653 0.247981 0.248307 0.248654 0.249122 0.249585 0.25005 0.250557 0.251229 0.251877 0.252621 0.253563 0.254663 0.256114 0.257254 0.257255 0.257218 0.257297 0.257255 0.25723 0.257252 0.257169 0.257184 0.257157 0.257092 0.257142 0.257096 0.257059 0.257082 0.257077 0.257076 0.256981 0.257006 0.25704 0.257057 0.257038 0.256967 0.25699 0.25708 0.256986 0.256998 0.256989 0.256947 0.256963 0.256971 0.256976 0.257024 0.256965 0.256978 0.256988 0.257014 0.257058 0.25707 0.257047 0.257118 0.257014 0.257013 0.257107 0.257095 0.257083 0.257122 0.257126 0.25715 0.257168 0.257105 0.257216 0.257231 0.257208 0.257274 0.257202 0.257275 0.257287 0.257322 0.257339 0.257346 0.257368 0.257433 0.257452 0.257496 0.257535 0.257529 0.257536 0.257649 0.257651 0.257616 0.257659 0.257698 0.257741 0.257799 0.257777 0.257837 0.257879 0.257904 0.258022 0.257983 0.258059 0.258061 0.258109 0.258144 0.258156 0.258235 0.25833 0.258345 0.258398 0.258439 0.258464 0.258597 0.258577 0.258688 0.258719 0.258665 0.258826 0.25887 0.258854 0.258942 0.258992 0.259107 0.259125 0.259169 0.259249 0.259285 0.259376 0.259415 0.259454 0.259586 0.259531 0.259657 0.259689 0.259743 0.259889 0.25996 0.259991 0.260071 0.260063 0.260199 0.260191 0.260309 0.260461 0.260539 0.260524 0.260645 0.26067 0.260706 0.260849 0.260936 0.261031 0.26105 0.261177 0.261335 0.261384 0.261413 0.261473 0.261549 0.261627 0.261692 0.26184 0.261856 0.261968 0.262039 0.262094 0.262193 0.262311 0.262422 0.262535 0.262602 0.262696 0.262742 0.262893 0.262906 0.262989 0.263131 0.26329 0.263346 0.263387 0.26327 0.263055 0.26274 0.262597 0.26225 0.262147 0.261891 0.261703 0.261557 0.261359 0.261259 0.261184 0.261133 0.261137 0.26115 0.261151 0.261164 0.261178 0.261168 0.261192 0.261189 0.261205 0.261243 0.261323 0.261397 0.261465 0.261536 0.261611 0.261694 0.261765 0.261848 0.261934 0.262055 0.262204 0.262353 0.262497 0.262642 0.262786 0.26295 0.263096 0.263249 0.26343 0.263653 0.263864 0.264099 0.264331 0.264567 0.264796 0.265025 0.265254 0.265545 0.265861 0.266204 0.266669 0.267247 0.267704 0.268205 0.269085 0.269784 0.270254 0.270722 0.270848 0.27097 0.271118 0.271233 0.271369 0.271575 0.271664 0.271876 0.272027 0.272138 0.272228 0.272396 0.272521 0.272744 0.272917 0.272962 0.273213 0.273296 0.273458 0.27359 0.273792 0.27391 0.274138 0.274227 0.274402 0.274483 0.27469 0.274846 0.275011 0.275217 0.275343 0.275504 0.275664 0.275826 0.275939 0.276146 0.276311 0.276478 0.276602 0.276846 0.276968 0.277122 0.277269 0.277463 0.277555 0.277765 0.277939 0.278094 0.278313 0.278388 0.278641 0.278841 0.279005 0.27909 0.279345 0.279514 0.279709 0.279888 0.280034 0.280178 0.280461 0.280609 0.280779 0.280938 0.281186 0.281334 0.281435 0.281711 0.281843 0.282023 0.282184 0.282344 0.282544 0.282789 0.28285 0.283126 0.283356 0.283494 0.283729 0.283836 0.284091 0.284227 0.284485 0.284666 0.284783 0.284986 0.285198 0.28537 0.285597 0.285816 0.285978 0.286227 0.286341 0.286571 0.28681 0.286923 0.28722 0.287426 0.287526 0.287734 0.28796 0.288185 0.288284 0.288573 0.288679 0.288902 0.289144 0.289395 0.289571 0.289749 0.29 0.290276 0.290413 0.29058 0.290857 0.290986 0.291205 0.291488 0.291618 0.291871 0.292079 0.292353 0.292474 0.292732 0.292942 0.293084 0.293312 0.293561
0 0 0 0 0 0 0 0.0137941 0.169555 0.274194 0.289728 0.289647 0.289354 0.289137 0.288945 0.288806 0.288548 0.288429 0.288102 0.287891 0.28777 0.287515 0.287294 0.287122 0.286928 0.28675 0.286548 0.286361 0.286191 0.285936 0.285768 0.285582 0.285301 0.285167 0.284967 0.284807 0.284631 0.284373 0.28424 0.283976 0.283754 0.283644 0.283418 0.283247 0.283039 0.28289 0.282597 0.282501 0.282294 0.282112 0.281944 0.28174 0.28159 0.281327 0.281101 0.280942 0.280852 0.280655 0.280452 0.280223 0.280097 0.27984 0.279761 0.279558 0.279363 0.27918 0.278947 0.278814 0.278694 0.278508 0.27831 0.278093 0.277991 0.277762 0.277529 0.277423 0.277286 0.277125 0.276962 0.276682 0.276586 0.276419 0.276253 0.276087 0.275949 0.275765 0.275587 0.275388 0.275255 0.275065 0.274932 0.274754 0.274646 0.274428 0.274285 0.274138 0.27396 0.273757 0.273568 0.27349 0.273335 0.27319 0.273037 0.272819 0.272735 0.272606 0.272381 0.272204 0.272131 0.271945 0.271847 0.271671 0.271532 0.271375 0.271218 0.271086 0.270925 0.270765 0.270704 0.270449 0.27029 0.270239 0.270081 0.269929 0.269717 0.269615 0.269525 0.269372 0.269145 0.269046 0.268896 0.268738 0.268702 0.268456 0.268431 0.268247 0.268106 0.267948 0.267827 0.26763 0.267632 0.267425 0.267341 0.267252 0.266974 0.266974 0.2668 0.26677 0.266603 0.266369 0.266368 0.266244 0.266038 0.265984 0.265809 0.265707 0.265568 0.265472 0.265363 0.265209 0.265173 0.264999 0.264832 0.26482 0.264642 0.26451 0.264431 0.26428 0.264186 0.264141 0.263974 0.263878 0.263715 0.263633 0.263594 0.263441 0.263302 0.263219 0.263071 0.263051 0.262937 0.262787 0.262702 0.2626 0.262543 0.262412 0.262243 0.262191 0.262163 0.261981 0.261973 0.261806 0.261696 0.261614 0.261478 0.261496 0.26137 0.261212 0.261111 0.261098 0.260935 0.26087 0.260816 0.260698 0.260639 0.26054 0.26045 0.260402 0.260225 0.260123 0.260112 0.260068 0.259938 0.259794 0.259806 0.25974 0.259674 0.259576 0.259483 0.259408 0.25927 0.259165 0.259183 0.259126 0.259062 0.257882 0.255714 0.254397 0.253324 0.252494 0.251691 0.25095 0.250376 0.249864 0.249409 0.248914 0.248568 0.248183 0.247823 0.247471 0.247168 0.246976 0.246781 0.246582 0.246381 0.246177 0.246018 0.245888 0.245753 0.245628 0.245483 0.245365 0.245294 0.245242 0.245201 0.245156 0.245113 0.245067 0.245066 0.245104 0.245133 0.245166 0.245201 0.245239 0.245316 0.245439 0.245553 0.245655 0.245791 0.24591 0.246083 0.246288 0.246499 0.246709 0.246909 0.247147 0.247455 0.247781 0.248107 0.248435 0.24877 0.249232 0.24971 0.25016 0.250666 0.251329 0.252014 0.252747 0.253684 0.254747 0.255801 0.255895 0.255866 0.255853 0.255766 0.255785 0.255844 0.255749 0.255759 0.255722 0.255682 0.255759 0.255754 0.255701 0.255674 0.255674 0.255589 0.255615 0.255641 0.255669 0.255629 0.255608 0.255585 0.255661 0.255609 0.255648 0.255595 0.255524 0.255537 0.255653 0.255574 0.255661 0.255568 0.255579 0.255599 0.255553 0.255622 0.255543 0.25561 0.255664 0.255613 0.25564 0.255665 0.255611 0.2557 0.255678 0.25566 0.255686 0.255696 0.255725 0.255729 0.255765 0.255796 0.255811 0.255848 0.255884 0.255827 0.25586 0.255849 0.256003 0.255991 0.255972 0.255958 0.256037 0.256 0.256009 0.256037 0.256156 0.256156 0.256236 0.256236 0.256229 0.256265 0.25624 0.256369 0.256379 0.256431 0.256447 0.256445 0.256503 0.256481 0.256572 0.256632 0.256689 0.256751 0.256779 0.256734 0.256824 0.256866 0.25691 0.256952 0.257044 0.257059 0.257088 0.257188 0.257192 0.257287 0.257291 0.257305 0.257427 0.257416 0.257544 0.257561 0.257651 0.257755 0.25775 0.257812 0.257793 0.257983 0.257928 0.258092 0.258114 0.258202 0.258294 0.2583 0.258322 0.258372 0.258504 0.258511 0.258597 0.258664 0.258767 0.258836 0.25886 0.258972 0.259066 0.259151 0.259195 0.25923 0.25937 0.259395 0.259482 0.259596 0.259643 0.259687 0.259762 0.259878 0.259989 0.260076 0.260147 0.260225 0.260287 0.260375 0.260397 0.26058 0.260603 0.260713 0.26082 0.260814 0.26098 0.261081 0.261152 0.261257 0.261305 0.2615 0.261568 0.26159 0.261711 0.261777 0.261867 0.262015 0.262096 0.262174 0.262312 0.262405 0.262489 0.262561 0.262677 0.262731 0.262829 0.262788 0.262708 0.262572 0.26246 0.262286 0.262386 0.262179 0.262215 0.262167 0.262054 0.261916 0.261811 0.261775 0.261783 0.261786 0.261847 0.261935 0.26193 0.262014 0.262055 0.262094 0.262164 0.262259 0.262385 0.262555 0.262704 0.262874 0.263029 0.263207 0.263331 0.263536 0.263773 0.264086 0.264295 0.264728 0.2649 0.265485 0.265626 0.266009 0.266504 0.266831 0.267129 0.267658 0.268062 0.268227 0.268369 0.26851 0.268632 0.2688 0.268949 0.269066 0.269193 0.269335 0.269487 0.269606 0.269727 0.26991 0.270038 0.270168 0.270267 0.270444 0.270592 0.270718 0.270938 0.271039 0.271188 0.271399 0.271537 0.27166 0.271827 0.272013 0.272084 0.272192 0.272472 0.272571 0.272698 0.272871 0.273173 0.273129 0.273292 0.273439 0.273694 0.273868 0.274011 0.274171 0.274291 0.274463 0.274564 0.274832 0.274971 0.275055 0.275284 0.275403 0.275606 0.275736 0.275854 0.276155 0.276207 0.276381 0.276559 0.276676 0.276927 0.277103 0.277214 0.277356 0.277595 0.277819 0.277932 0.278109 0.278323 0.278531 0.278624 0.278847 0.279083 0.279203 0.279358 0.279498 0.279715 0.279877 0.280072 0.280319 0.280461 0.280599 0.280784 0.28095 0.281159 0.281356 0.281624 0.28177 0.281947 0.28209 0.282244 0.282436 0.282689 0.282837 0.283093 0.283223 0.283453 0.283665 0.283731 0.283948 0.284217 0.284382 0.284642 0.2848 0.28491 0.285202 0.285337 0.285568 0.285706 0.285917 0.286118 0.286322 0.28649 0.286713 0.286935 0.287127 0.287385 0.287576 0.287793 0.287925 0.288154 0.288384 0.288611 0.28878 0.288989 0.289214 0.289383 0.289619 0.289838 0.290048 0.290235 0.290403 0.290665 0.290824 0.291071 0.291299 0.291546 0.291763 0.291892
