0.0180429 0.132321 0.24884 0.274124 0.274116 0.274134 0.27411 0.274122 0.274108 0.274113 0.274121 0.274108 0.274125 0.274103 0.274115 0.274112 0.274104 0.274125 0.274119 0.274111 0.274118 0.274101 0.274125 0.274076 0.274093 0.274103 0.274126 0.27411 0.274115 0.274103 0.27411 0.274093 0.274125 0.274123 0.274117 0.274142 0.274106 0.27412 0.27413 0.274117 0.274129 0.274137 0.274125 0.274111 0.274114 0.274113 0.274098 0.274113 0.274108 0.274111 0.274104 0.274125 0.27414 0.274098 0.27413 0.274108 0.274125 0.274144 0.274118 0.274102 0.274104 0.274104 0.274111 0.274142 0.2741 0.274116 0.274116 0.274119 0.274097 0.274102 0.274107 0.274127 0.274096 0.274128 0.274086 0.274104 0.274107 0.274111 0.274133 0.274113 0.274101 0.274127 0.27412 0.274108 0.274139 0.274123 0.274119 0.274117 0.274111 0.274119 0.274114 0.274105 0.274105 0.274106 0.274121 0.274108 0.274113 0.274113 0.274128 0.274117 0.274127 0.27414 0.274112 0.274114 0.274107 0.274102 0.274108 0.274094 0.274115 0.27412 0.274113 0.274122 0.274106 0.274105 0.274114 0.274121 0.274119 0.274114 0.274149 0.274109 0.274095 0.274102 0.274086 0.274117 0.274138 0.274117 0.274128 0.274121 0.274112 0.274105 0.274103 0.274125 0.274098 0.274111 0.274129 0.274101 0.274102 0.274094 0.274128 0.274107 0.274134 0.274119 0.27411 0.274129 0.274113 0.27412 0.274117 0.274112 0.274104 0.274122 0.274098 0.274104 0.274118 0.274116 0.274108 0.274106 0.274112 0.274128 0.274123 0.257416 0.224957 0.224312 0.22397 0.223721 0.223477 0.223433 0.223572 0.22378 0.242537 0.274119 0.274118 0.274124 0.274129 0.274134 0.274122 0.274137 0.274111 0.274117 0.274119 0.270091 0.241997 0.240345 0.239199 0.238348 0.237536 0.237013 0.236595 0.236167 0.235768 0.235455 0.235152 0.234853 0.234558 0.234357 0.23422 0.234078 0.23394 0.2338 0.233673 0.233589 0.233513 0.233434 0.233358 0.23328 0.233226 0.233223 0.233224 0.233224 0.233224 0.233226 0.233251 0.233315 0.233389 0.23346 0.23353 0.233604 0.233684 0.233818 0.233962 0.234106 0.234251 0.234396 0.234549 0.234754 0.234976 0.235198 0.235418 0.235642 0.235882 0.236191 0.236506 0.236822 0.237142 0.237464 0.23787 0.238302 0.238745 0.239176 0.239664 0.240261 0.240857 0.241472 0.242236 0.243093 0.244005 0.245312 0.247077 0.268946 0.274136 0.274118 0.274086 0.274128 0.274103 0.2741 0.274124 0.274112 0.274133 0.274115 0.274115 0.274113 0.274098 0.274116 0.274111 0.274112 0.274092 0.274122 0.274121 0.274118 0.274107 0.274104 0.274129 0.274117 0.27412 0.2741 0.274123 0.274102 0.274126 0.274114 0.274113 0.2741 0.274135 0.274125 0.274125 0.27412 0.274125 0.274119 0.274125 0.274104 0.274099 0.274104 0.27412 0.27412 0.274109 0.27411 0.274096 0.274128 0.274105 0.274098 0.274116 0.274121 0.274099 0.274121 0.274111 0.274124 0.274121 0.274118 0.274125 0.27411 0.274106 0.274109 0.27411 0.274128 0.274092 0.274105 0.274115 0.274123 0.274128 0.274115 0.274106 0.274116 0.274111 0.27411 0.274131 0.274123 0.274101 0.27413 0.274123 0.274118 0.274109 0.274107 0.274119 0.27413 0.274116 0.274115 0.274106 0.274118 0.274135 0.274109 0.274111 0.274119 0.274106 0.274114 0.274126 0.274106 0.274116 0.274098 0.274129 0.274116 0.274111 0.274133 0.274109 0.274113 0.274127 0.274112 0.274115 0.274117 0.274114 0.27412 0.273083 0.268314 0.266081 0.264205 0.262893 0.261762 0.260989 0.260355 0.259806 0.259271 0.25874 0.258205 0.257675 0.257173 0.256735 0.256311 0.255872 0.255448 0.255022 0.2546 0.254209 0.253854 0.253513 0.253179 0.252821 0.252478 0.252071 0.251634 0.251222 0.250775 0.25032 0.249866 0.24941 0.248956 0.248573 0.24822 0.247868 0.247521 0.24718 0.246836 0.246506 0.246169 0.245889 0.245637 0.245382 0.245125 0.244873 0.244621 0.244363 0.244113 0.243887 0.243701 0.243535 0.24335 0.243177 0.243004 0.242832 0.242664 0.242503 0.242348 0.242242 0.242149 0.242054 0.241961 0.241873 0.241782 0.241694 0.241607 0.24152 0.24145 0.241416 0.241383 0.241352 0.24132 0.241289 0.241256 0.241225 0.241194 0.241162 0.241154 0.241176 0.241199 0.241221 0.241243 0.241264 0.241287 0.241309 0.241331 0.241359 0.24143 0.24151 0.241591 0.241673 0.241758 0.241842 0.241928 0.242017 0.242114 0.242265 0.242439 0.242614 0.242792 0.242977 0.243164 0.243358 0.243564 0.243838 0.244153 0.244458 0.244773 0.245086 0.245394 0.245732 0.246177 0.246651 0.247119 0.247605 0.248079 0.248681 0.249403 0.250121 0.250865 0.251609 0.252334 0.252847 0.253321 0.253811 0.254365 0.255027 0.25569 0.256345 0.257077 0.257975 0.258926 0.259875 0.262783 0.274131 0.274108 0.274127 0.27413 0.274129 0.274112 0.274118 0.274107 0.274126 0.274123 0.274108 0.274108 0.274123 0.274112 0.274103 0.27412 0.274116 0.274104 0.274115 0.274118 0.27411 0.274121 0.274095 0.274112 0.274136 0.274116 0.274115 0.274112 0.274121 0.274138 0.274123 0.274119 0.274117 0.274107 0.274132 0.274133 0.274115 0.274097 0.274111 0.274099 0.274116 0.274113 0.274125 0.27412 0.274115 0.274135 0.274122 0.274123 0.274113 0.274129 0.274107 0.274115 0.274113 0.274127 0.274129 0.274113 0.274106 0.274099 0.274105 0.274103 0.274121 0.274125 0.274117 0.274084 0.274126 0.27411 0.274101 0.274128 0.274129 0.274111 0.274134 0.274114 0.274117 0.274126 0.27411 0.274122 0.274128 0.274108 0.2741 0.274099 0.274101 0.274123 0.274107 0.274119 0.274107 0.274098 0.274116 0.274096 0.274111 0.274116 0.274099 0.274115 0.274135 0.274122 0.274111 0.274124 0.274126 0.274097 0.274113 0.274123 0.274113 0.274111 0.274109 0.274099 0.274117 0.274117 0.274112 0.274135 0.274122 0.274112 0.27411 0.274104 0.274097 0.274108 0.274124 0.274144 0.274126 0.274109 0.274107 0.274101 0.274102 0.274116 0.274118 0.274149 0.274104 0.274112 0.274114 0.274103 0.274122 0.274112 0.274123 0.274116 0.274125 0.274111 0.274107 0.27411 0.27411 0.274109 0.274127 0.274107 0.274109 0.274108 0.274109 0.274127 0.274119 0.274091
0.25782 0.272283 0.272296 0.272289 0.272298 0.27229 0.272285 0.272305 0.272274 0.272282 0.2723 0.272286 0.272297 0.272315 0.272304 0.272306 0.27228 0.272281 0.272288 0.27229 0.272281 0.27231 0.272286 0.272294 0.272287 0.272284 0.272328 0.272298 0.272296 0.272297 0.272292 0.272273 0.272295 0.272282 0.272279 0.272304 0.272298 0.272292 0.272291 0.272311 0.272297 0.272296 0.272289 0.2723 0.272307 0.272294 0.272289 0.272287 0.272291 0.272291 0.272295 0.272305 0.272286 0.272299 0.272297 0.272292 0.272303 0.272289 0.272283 0.272283 0.272293 0.272288 0.272311 0.272303 0.272291 0.272278 0.272288 0.272292 0.272306 0.272294 0.272277 0.272297 0.272282 0.272298 0.272286 0.272275 0.272304 0.272301 0.2723 0.272312 0.27232 0.272301 0.272312 0.27228 0.272292 0.272302 0.272288 0.272312 0.272293 0.272288 0.272295 0.272281 0.272307 0.272305 0.272287 0.272311 0.272305 0.272302 0.272284 0.272275 0.272279 0.272313 0.272307 0.272292 0.272296 0.272299 0.2723 0.272308 0.272287 0.272284 0.272294 0.272312 0.272307 0.272304 0.272272 0.272292 0.272281 0.272285 0.272304 0.272303 0.272298 0.272298 0.272292 0.272313 0.272308 0.272294 0.272313 0.272262 0.272294 0.272279 0.272279 0.272298 0.272306 0.272286 0.272293 0.272275 0.272274 0.272286 0.272301 0.272316 0.272289 0.272282 0.272277 0.272292 0.272282 0.272304 0.272293 0.272284 0.272293 0.272307 0.272308 0.272337 0.27229 0.27229 0.272283 0.272289 0.272276 0.272276 0.272305 0.270239 0.227049 0.224632 0.224177 0.223913 0.223655 0.22352 0.223657 0.223803 0.226633 0.270432 0.272298 0.272299 0.272288 0.2723 0.272322 0.272287 0.27228 0.27228 0.272294 0.268565 0.241969 0.240354 0.239199 0.238346 0.237539 0.237016 0.236599 0.236171 0.23577 0.235459 0.235156 0.234854 0.234555 0.234357 0.23422 0.234078 0.233942 0.2338 0.233672 0.23359 0.233513 0.233435 0.233358 0.233281 0.233226 0.233223 0.233224 0.233224 0.233224 0.233227 0.233251 0.233316 0.233389 0.23346 0.23353 0.233604 0.233697 0.233818 0.233961 0.234107 0.234251 0.234396 0.234546 0.234752 0.234973 0.235197 0.235422 0.235645 0.235885 0.236191 0.236507 0.236824 0.23714 0.237464 0.237872 0.238309 0.238741 0.239175 0.239661 0.240261 0.24086 0.241478 0.242225 0.243097 0.24401 0.245306 0.247037 0.267193 0.27228 0.272287 0.272298 0.272281 0.272299 0.272271 0.272297 0.272287 0.272296 0.272302 0.272291 0.272278 0.272292 0.272298 0.272301 0.272275 0.272292 0.272301 0.272299 0.272286 0.272286 0.272301 0.272281 0.272284 0.2723 0.272304 0.272299 0.272287 0.272274 0.2723 0.272304 0.272309 0.272285 0.272309 0.272287 0.272285 0.27232 0.272293 0.272304 0.27232 0.27231 0.272305 0.272292 0.272293 0.272326 0.272294 0.272289 0.272315 0.272275 0.272297 0.272294 0.272286 0.27229 0.272264 0.272312 0.272291 0.272289 0.272289 0.27229 0.272304 0.272283 0.272303 0.272303 0.272288 0.272277 0.272286 0.272293 0.2723 0.272297 0.272305 0.27229 0.272306 0.272285 0.272291 0.272296 0.2723 0.272296 0.272296 0.272312 0.272297 0.272301 0.272298 0.272293 0.272301 0.272267 0.272323 0.27229 0.272293 0.272302 0.272288 0.27229 0.272291 0.272287 0.272306 0.272297 0.272304 0.272277 0.272292 0.272302 0.272284 0.2723 0.272304 0.27229 0.27229 0.272285 0.272291 0.272283 0.272271 0.272283 0.272297 0.272283 0.270026 0.266745 0.264729 0.263298 0.262026 0.260799 0.259916 0.259309 0.258772 0.258235 0.257707 0.25718 0.256735 0.256299 0.255868 0.255444 0.255016 0.254595 0.25418 0.25382 0.25347 0.253128 0.252782 0.25244 0.252096 0.251763 0.251454 0.251177 0.250904 0.250598 0.250259 0.249888 0.249466 0.249049 0.248693 0.248334 0.247996 0.247642 0.247304 0.246963 0.246621 0.246328 0.246071 0.245816 0.245558 0.245305 0.245055 0.244803 0.244551 0.2443 0.244123 0.243939 0.243759 0.243583 0.243409 0.243233 0.243056 0.242878 0.242706 0.242577 0.24247 0.242365 0.242261 0.242149 0.242042 0.241935 0.241827 0.241715 0.241626 0.241586 0.241548 0.241504 0.241466 0.241425 0.241384 0.241349 0.241308 0.241262 0.241261 0.241285 0.241318 0.241344 0.241372 0.24139 0.241429 0.241453 0.241481 0.241523 0.241615 0.241724 0.24183 0.241933 0.242033 0.242148 0.242245 0.242351 0.24248 0.242668 0.242874 0.243062 0.243254 0.243452 0.243651 0.243843 0.24408 0.244392 0.244706 0.245016 0.245327 0.245643 0.245956 0.246367 0.246837 0.247314 0.247794 0.24827 0.248825 0.249502 0.250103 0.250595 0.250992 0.25137 0.251832 0.252304 0.252787 0.253264 0.253758 0.254357 0.255004 0.255663 0.256333 0.257108 0.258032 0.258976 0.264976 0.272292 0.272299 0.272275 0.272299 0.272304 0.272319 0.272311 0.272296 0.272294 0.272295 0.272287 0.272294 0.272312 0.272319 0.272279 0.272302 0.272292 0.272268 0.272304 0.272274 0.272293 0.272281 0.272299 0.272284 0.272315 0.272312 0.272294 0.272293 0.272284 0.272279 0.272307 0.2723 0.272281 0.272282 0.272293 0.272278 0.272298 0.272286 0.272273 0.272284 0.272291 0.272293 0.272283 0.272291 0.272293 0.272291 0.272276 0.272291 0.27229 0.27232 0.272285 0.272294 0.272294 0.272311 0.272291 0.272277 0.272288 0.272296 0.272303 0.272287 0.272306 0.272275 0.27229 0.272299 0.272292 0.272284 0.272294 0.272311 0.272307 0.272285 0.272304 0.272277 0.27228 0.272312 0.272271 0.272286 0.272306 0.272265 0.272297 0.272292 0.272299 0.272319 0.272293 0.272282 0.2723 0.272289 0.272282 0.272295 0.2723 0.272279 0.272277 0.2723 0.272289 0.272289 0.272282 0.272294 0.272284 0.272295 0.272312 0.272286 0.272299 0.272286 0.272289 0.272285 0.272312 0.272327 0.272319 0.272287 0.272274 0.2723 0.272289 0.27227 0.272283 0.272303 0.27231 0.27231 0.272306 0.272301 0.272286 0.272293 0.272278 0.272297 0.272283 0.272298 0.27231 0.272283 0.272297 0.272257 0.272299 0.272268 0.272291 0.272309 0.272304 0.272296 0.272284 0.272262 0.272298 0.272326 0.272293 0.272286 0.272287 0.272321 0.272322 0.272283 0.272281 0.272294
0.27049 0.270499 0.270504 0.270491 0.270516 0.270477 0.270497 0.270475 0.27049 0.270491 0.27052 0.270501 0.2705 0.270504 0.270491 0.270482 0.270478 0.27049 0.270483 0.270487 0.270499 0.270499 0.270507 0.270504 0.270475 0.270486 0.270501 0.270488 0.270502 0.270503 0.270488 0.270475 0.270506 0.270504 0.270507 0.270483 0.270494 0.270487 0.270486 0.270481 0.270499 0.270506 0.270502 0.270516 0.270494 0.270483 0.270519 0.27051 0.270492 0.270483 0.270506 0.2705 0.270495 0.2705 0.270479 0.270469 0.2705 0.270522 0.270497 0.270484 0.270472 0.270493 0.270489 0.270485 0.270492 0.270492 0.270483 0.270505 0.27049 0.270494 0.270488 0.270492 0.2705 0.270494 0.270503 0.270501 0.270509 0.270483 0.2705 0.270509 0.270496 0.270487 0.270517 0.270513 0.270504 0.270487 0.270488 0.270476 0.270504 0.270499 0.270494 0.270488 0.27049 0.270492 0.270517 0.270504 0.270502 0.270512 0.270509 0.270492 0.270519 0.27048 0.270487 0.270485 0.27049 0.270496 0.270512 0.270497 0.270508 0.270497 0.270487 0.2705 0.270501 0.270489 0.270491 0.270491 0.270497 0.270493 0.27049 0.270504 0.270492 0.270492 0.270494 0.270512 0.270492 0.270527 0.270491 0.270488 0.270495 0.270491 0.2705 0.270472 0.270473 0.270505 0.270486 0.27049 0.270508 0.270483 0.270495 0.27052 0.270499 0.270498 0.270474 0.2705 0.270492 0.270506 0.270496 0.270496 0.270487 0.270506 0.270502 0.27051 0.270491 0.270488 0.270479 0.270505 0.270515 0.270485 0.270505 0.270499 0.239043 0.224996 0.224412 0.224134 0.223874 0.22366 0.22374 0.22389 0.224264 0.256467 0.270506 0.270474 0.270484 0.270504 0.270505 0.270495 0.270497 0.270515 0.270505 0.267025 0.241995 0.240348 0.239191 0.238342 0.237535 0.237024 0.2366 0.236178 0.235771 0.23546 0.235158 0.23486 0.23456 0.234359 0.234219 0.23408 0.23394 0.233799 0.233673 0.233589 0.233514 0.233436 0.233358 0.233281 0.233226 0.233223 0.233224 0.233224 0.233224 0.233227 0.23325 0.233315 0.233389 0.23346 0.233531 0.233604 0.233684 0.233818 0.233962 0.234103 0.234249 0.234396 0.234547 0.234753 0.234975 0.235198 0.235421 0.235644 0.235883 0.236191 0.236507 0.236821 0.237139 0.237468 0.237868 0.238304 0.238744 0.239173 0.23967 0.240263 0.240865 0.241479 0.24223 0.243111 0.244005 0.245298 0.247075 0.265753 0.270506 0.270512 0.27049 0.270508 0.270498 0.270477 0.270493 0.270499 0.270499 0.270503 0.270497 0.270468 0.270467 0.270503 0.270514 0.270512 0.270501 0.270477 0.270511 0.270487 0.270484 0.270497 0.270485 0.270489 0.270514 0.270507 0.270492 0.27051 0.270474 0.270505 0.270473 0.270504 0.270512 0.270492 0.270501 0.270487 0.270472 0.270492 0.270488 0.270508 0.270517 0.270504 0.270508 0.270499 0.270487 0.270494 0.270499 0.270474 0.270501 0.270491 0.270506 0.270504 0.270502 0.270497 0.270485 0.270496 0.27051 0.270517 0.270496 0.270504 0.270484 0.270487 0.270504 0.2705 0.270493 0.270513 0.270503 0.270492 0.270495 0.270502 0.270481 0.270512 0.270482 0.270506 0.270492 0.27048 0.270483 0.270469 0.270476 0.270477 0.270504 0.270505 0.270504 0.270513 0.270503 0.270477 0.270513 0.270497 0.270495 0.270494 0.270512 0.270509 0.270482 0.270518 0.270506 0.270517 0.270488 0.270483 0.270489 0.270487 0.270499 0.270498 0.270507 0.270509 0.27048 0.270494 0.270524 0.270484 0.270509 0.270509 0.270502 0.270369 0.268037 0.265329 0.263723 0.262432 0.261191 0.260077 0.259189 0.258394 0.257748 0.257224 0.25672 0.256293 0.255873 0.255439 0.255013 0.254592 0.254168 0.253782 0.253434 0.253096 0.252747 0.252396 0.252056 0.251722 0.251388 0.251103 0.250831 0.250554 0.250284 0.250003 0.249731 0.24946 0.24919 0.248941 0.248681 0.248398 0.248095 0.247779 0.247435 0.247091 0.246761 0.246508 0.246248 0.245998 0.245735 0.24548 0.245225 0.244977 0.244726 0.244532 0.244349 0.244172 0.244001 0.243821 0.243636 0.243459 0.243285 0.243106 0.242985 0.242874 0.242764 0.242661 0.24255 0.242441 0.242335 0.24223 0.242118 0.242029 0.241986 0.241945 0.241903 0.241867 0.241824 0.241784 0.241742 0.241702 0.241662 0.241672 0.241699 0.241728 0.241758 0.241778 0.241816 0.241835 0.241874 0.241899 0.241951 0.24206 0.242162 0.242271 0.242374 0.24248 0.24259 0.242683 0.242794 0.242963 0.243154 0.243357 0.243551 0.243746 0.24394 0.244137 0.244349 0.244632 0.244949 0.245267 0.245576 0.24589 0.246203 0.246568 0.247041 0.247509 0.247958 0.248366 0.248738 0.249121 0.249476 0.249823 0.250179 0.250529 0.250882 0.251297 0.251765 0.252244 0.252709 0.253195 0.253715 0.254345 0.254991 0.25565 0.256311 0.257142 0.258264 0.267577 0.270486 0.270497 0.270491 0.270504 0.270497 0.270503 0.270494 0.270504 0.27049 0.270479 0.270491 0.270479 0.270495 0.270501 0.270512 0.27051 0.270504 0.270501 0.270508 0.270469 0.270513 0.27049 0.2705 0.270484 0.270494 0.2705 0.270495 0.270516 0.270487 0.270499 0.270489 0.270515 0.270498 0.270491 0.27049 0.270504 0.270484 0.270498 0.270514 0.270488 0.27049 0.270494 0.270497 0.270515 0.270481 0.270483 0.270498 0.270501 0.270524 0.270514 0.270506 0.270498 0.270494 0.270493 0.270494 0.270507 0.270488 0.270498 0.270501 0.2705 0.2705 0.270505 0.270498 0.270496 0.270485 0.270489 0.270494 0.270497 0.270481 0.270496 0.270496 0.270493 0.270502 0.270502 0.27049 0.270508 0.270498 0.270514 0.270498 0.270485 0.270478 0.270503 0.270497 0.270495 0.270504 0.270514 0.270491 0.27049 0.270489 0.27051 0.270504 0.270512 0.270517 0.270497 0.270491 0.270492 0.270484 0.270481 0.270492 0.270504 0.270499 0.27051 0.270493 0.2705 0.270467 0.270497 0.270505 0.270495 0.27049 0.270503 0.27049 0.270496 0.27051 0.270501 0.270492 0.270494 0.270476 0.270486 0.270507 0.270493 0.270489 0.270495 0.270481 0.270519 0.270494 0.270501 0.270493 0.270505 0.270499 0.270487 0.270517 0.270504 0.270482 0.270489 0.270504 0.270495 0.270512 0.270508 0.270484 0.270489 0.270503 0.270491 0.270511 0.270501 0.270505 0.270494
0.268722 0.268732 0.268708 0.268725 0.268726 0.268728 0.268712 0.268709 0.268714 0.268699 0.268726 0.268721 0.268706 0.268731 0.268703 0.268746 0.26871 0.268718 0.268715 0.26872 0.268725 0.268718 0.26873 0.268747 0.268729 0.268735 0.268711 0.268723 0.268732 0.268741 0.268731 0.268723 0.268713 0.268718 0.26872 0.268717 0.268725 0.26873 0.268708 0.268738 0.268709 0.26871 0.268719 0.26871 0.26874 0.268733 0.268722 0.268719 0.268713 0.268719 0.268721 0.268717 0.268728 0.268747 0.268718 0.268722 0.268717 0.268725 0.268734 0.26873 0.26872 0.268727 0.268744 0.268708 0.268704 0.268727 0.268711 0.268731 0.268734 0.26873 0.268711 0.268746 0.268725 0.268703 0.268699 0.268716 0.268728 0.26872 0.268736 0.268736 0.268716 0.268734 0.268722 0.268742 0.268723 0.26874 0.268721 0.268712 0.268722 0.26872 0.268711 0.268718 0.26872 0.268717 0.268729 0.268717 0.268711 0.268728 0.268715 0.268709 0.26872 0.268717 0.268715 0.268733 0.268711 0.268714 0.268716 0.268737 0.268711 0.268733 0.268732 0.268705 0.268715 0.26872 0.268703 0.26873 0.268742 0.268722 0.268728 0.268714 0.268734 0.268733 0.268713 0.268716 0.268726 0.268722 0.268713 0.268727 0.268715 0.268718 0.268706 0.268716 0.26872 0.268723 0.268719 0.268722 0.26874 0.26872 0.268739 0.268701 0.268737 0.268711 0.268728 0.268731 0.268706 0.268721 0.26872 0.26872 0.268727 0.268733 0.268718 0.268736 0.268736 0.268727 0.268729 0.268704 0.268703 0.268713 0.268729 0.268733 0.254565 0.225346 0.224692 0.224349 0.224096 0.223843 0.223827 0.223975 0.224185 0.23849 0.268721 0.268708 0.268701 0.268703 0.268711 0.268737 0.268737 0.268741 0.268731 0.265407 0.242001 0.240334 0.239194 0.238347 0.237529 0.237024 0.236598 0.236176 0.235774 0.235456 0.23516 0.234856 0.234559 0.234357 0.23422 0.234079 0.233942 0.2338 0.233672 0.23359 0.233514 0.233435 0.233359 0.233282 0.233226 0.233223 0.233224 0.233224 0.233224 0.233226 0.233251 0.233317 0.233388 0.233461 0.23353 0.233604 0.233683 0.233817 0.233961 0.234105 0.23425 0.234396 0.234547 0.234751 0.234972 0.235196 0.23542 0.235643 0.235885 0.23619 0.236504 0.236823 0.237137 0.237464 0.237874 0.238317 0.238748 0.239175 0.239668 0.240262 0.240864 0.241469 0.242233 0.243094 0.244017 0.245302 0.247054 0.264401 0.268722 0.268743 0.26871 0.268728 0.268741 0.268728 0.268715 0.268712 0.268718 0.268723 0.268737 0.268743 0.268742 0.268703 0.268717 0.268715 0.268723 0.268733 0.268733 0.268732 0.268726 0.268714 0.268721 0.268733 0.268712 0.268734 0.26873 0.268707 0.268718 0.268715 0.268724 0.268718 0.268723 0.268712 0.268724 0.268727 0.268714 0.268722 0.268731 0.268734 0.268733 0.268718 0.268711 0.268736 0.268718 0.26873 0.268737 0.268707 0.268718 0.268725 0.268718 0.268742 0.268716 0.268726 0.268723 0.268725 0.268728 0.268711 0.268716 0.268723 0.268724 0.268721 0.268708 0.268724 0.268728 0.268722 0.268726 0.268727 0.268712 0.268708 0.268725 0.268723 0.268708 0.268729 0.268731 0.268717 0.268699 0.268714 0.268723 0.268729 0.268726 0.268731 0.268693 0.268728 0.268705 0.268728 0.268718 0.26873 0.268732 0.268727 0.268738 0.268719 0.268728 0.268734 0.268729 0.268714 0.268734 0.268712 0.268732 0.268715 0.268724 0.268723 0.268716 0.268728 0.268714 0.268727 0.268722 0.268727 0.268745 0.268712 0.268716 0.268718 0.268683 0.266813 0.264175 0.262844 0.26159 0.260412 0.259481 0.258615 0.257715 0.256909 0.256319 0.255857 0.255434 0.255006 0.254587 0.254161 0.253752 0.25339 0.253052 0.252707 0.252367 0.252022 0.251684 0.251341 0.251028 0.250754 0.250478 0.250196 0.249928 0.249653 0.249383 0.249109 0.248862 0.24864 0.248431 0.248212 0.247998 0.247781 0.247561 0.247329 0.247083 0.246867 0.246643 0.24641 0.246167 0.245916 0.245662 0.245404 0.245154 0.244949 0.244765 0.244583 0.244404 0.244231 0.244055 0.243872 0.243694 0.243522 0.243381 0.243279 0.243169 0.24306 0.242956 0.242843 0.242736 0.242631 0.242517 0.242434 0.242389 0.242348 0.242307 0.242267 0.242229 0.242187 0.242148 0.242102 0.242068 0.242085 0.242113 0.24214 0.242166 0.242195 0.242225 0.242258 0.242287 0.242315 0.242396 0.242501 0.242608 0.242709 0.242823 0.242926 0.243024 0.243133 0.243259 0.243453 0.24365 0.243841 0.244034 0.244235 0.244425 0.244631 0.244879 0.245195 0.245515 0.245818 0.246123 0.246416 0.246709 0.247039 0.24736 0.247643 0.247897 0.248155 0.248416 0.248687 0.249022 0.249372 0.249723 0.250074 0.250423 0.25078 0.251232 0.251704 0.252175 0.252651 0.253125 0.253678 0.25432 0.254996 0.255629 0.256416 0.259513 0.268633 0.268737 0.268715 0.26873 0.268722 0.268724 0.268726 0.268713 0.26873 0.268734 0.268734 0.268721 0.268716 0.268744 0.268702 0.268729 0.268721 0.268714 0.268716 0.268719 0.268729 0.268726 0.26875 0.268734 0.268713 0.268755 0.268714 0.268731 0.26872 0.268702 0.26873 0.26872 0.26873 0.268713 0.268718 0.268742 0.268725 0.268715 0.268729 0.268715 0.268736 0.268714 0.268727 0.268718 0.268715 0.268719 0.268722 0.268716 0.268706 0.268736 0.268738 0.26871 0.268714 0.268726 0.268723 0.268737 0.268736 0.268732 0.268738 0.268721 0.268734 0.268734 0.268718 0.268711 0.268703 0.268718 0.268722 0.268714 0.268703 0.268738 0.268714 0.268716 0.26874 0.268718 0.268709 0.268739 0.268744 0.268731 0.268709 0.268723 0.268721 0.26872 0.268717 0.268725 0.26871 0.268736 0.268737 0.268713 0.268714 0.268714 0.268726 0.268713 0.268726 0.268718 0.268705 0.26873 0.268735 0.268729 0.268713 0.268725 0.268725 0.268717 0.26871 0.268713 0.268734 0.268749 0.268719 0.268728 0.268713 0.268705 0.268723 0.268727 0.26872 0.268745 0.268747 0.268701 0.26873 0.268714 0.268716 0.268722 0.268727 0.268708 0.268719 0.268743 0.268722 0.268716 0.26875 0.268696 0.268701 0.268728 0.268707 0.268731 0.268725 0.268706 0.268707 0.268724 0.268706 0.268724 0.26872 0.268725 0.268738 0.26872 0.26873 0.268709 0.268715 0.268701 0.268705
0.267001 0.266979 0.266974 0.266986 0.266963 0.266966 0.266964 0.266988 0.266972 0.266965 0.266975 0.266956 0.266981 0.266976 0.266978 0.266971 0.266957 0.266972 0.266982 0.266952 0.266962 0.266977 0.266969 0.266969 0.266973 0.266986 0.266963 0.266954 0.266975 0.266968 0.266951 0.266961 0.26697 0.266981 0.266963 0.266964 0.266967 0.266968 0.266993 0.266972 0.266968 0.26697 0.266958 0.266977 0.266946 0.266972 0.267004 0.266968 0.266969 0.266975 0.266993 0.266985 0.266986 0.266984 0.26697 0.266983 0.26697 0.266987 0.26698 0.266983 0.266986 0.266977 0.266972 0.266965 0.26698 0.266967 0.266967 0.266968 0.266981 0.266968 0.266971 0.266975 0.26698 0.266975 0.266962 0.266985 0.266972 0.266961 0.266965 0.266977 0.266948 0.266966 0.266968 0.266984 0.266985 0.266973 0.26697 0.26697 0.266976 0.266971 0.266973 0.266948 0.266989 0.26696 0.266969 0.266967 0.266989 0.266966 0.266969 0.266993 0.26699 0.266982 0.266974 0.266963 0.266971 0.266949 0.26696 0.266981 0.266976 0.266962 0.266961 0.266978 0.266959 0.26697 0.266982 0.266991 0.266993 0.266974 0.266985 0.266951 0.266968 0.266965 0.266953 0.26698 0.266966 0.266987 0.266966 0.266957 0.26699 0.266954 0.266993 0.266964 0.266963 0.266986 0.266977 0.266986 0.266983 0.266964 0.266981 0.266957 0.266979 0.266972 0.266976 0.266957 0.266971 0.266961 0.266977 0.266969 0.266969 0.266966 0.266964 0.266961 0.266981 0.266971 0.26697 0.266955 0.26698 0.26698 0.266965 0.266987 0.265225 0.227104 0.225022 0.224569 0.224314 0.224054 0.223922 0.22406 0.224213 0.224826 0.254793 0.266961 0.266964 0.266986 0.266961 0.26696 0.266972 0.266957 0.266987 0.263582 0.241981 0.24035 0.23918 0.238343 0.237535 0.237029 0.236607 0.236179 0.235773 0.235464 0.235162 0.234858 0.23456 0.234359 0.234219 0.23408 0.233938 0.2338 0.233673 0.23359 0.233526 0.233435 0.233358 0.233281 0.233226 0.233223 0.233224 0.233224 0.233224 0.233227 0.233251 0.233316 0.233388 0.23346 0.233531 0.233603 0.233682 0.233818 0.233961 0.234106 0.234251 0.234397 0.234545 0.234754 0.234975 0.235197 0.23542 0.235644 0.235886 0.236192 0.236509 0.236819 0.237137 0.237463 0.23787 0.238306 0.238737 0.239182 0.239665 0.240266 0.240864 0.241471 0.242231 0.243095 0.24402 0.245298 0.247055 0.263516 0.266959 0.266982 0.266981 0.266974 0.266981 0.266973 0.266976 0.26697 0.266987 0.266987 0.266968 0.266975 0.26698 0.266988 0.266978 0.266966 0.266972 0.266951 0.266943 0.266966 0.266976 0.26698 0.266961 0.266971 0.266971 0.266969 0.266967 0.266964 0.26696 0.266974 0.266964 0.266947 0.266973 0.266958 0.266945 0.266987 0.266996 0.266954 0.266986 0.266977 0.266948 0.266977 0.266972 0.266975 0.266996 0.266975 0.266972 0.26697 0.266961 0.266966 0.266973 0.266977 0.266962 0.266974 0.266973 0.266975 0.266979 0.266977 0.266979 0.26699 0.266972 0.26696 0.26698 0.26698 0.266955 0.266989 0.266975 0.266958 0.266974 0.266983 0.266978 0.266951 0.266936 0.26698 0.266967 0.266968 0.266967 0.266973 0.266969 0.266973 0.266969 0.266966 0.266967 0.266974 0.266994 0.266963 0.266969 0.266973 0.266968 0.266976 0.26697 0.266985 0.266961 0.26699 0.26696 0.266973 0.266971 0.266983 0.266977 0.266965 0.266965 0.266978 0.266978 0.26697 0.266967 0.266977 0.267006 0.266964 0.266965 0.266979 0.266963 0.266994 0.266989 0.26696 0.265797 0.263403 0.26201 0.260776 0.259807 0.258907 0.258025 0.257132 0.256402 0.255729 0.255129 0.254602 0.254163 0.253739 0.25335 0.253012 0.252667 0.252324 0.251985 0.251643 0.251298 0.250972 0.250676 0.250401 0.250128 0.249851 0.249583 0.249304 0.249034 0.248778 0.248535 0.248319 0.248103 0.247883 0.247671 0.247454 0.247244 0.247027 0.246827 0.246663 0.246501 0.246337 0.246172 0.246009 0.24584 0.245662 0.245457 0.245283 0.24513 0.244972 0.244807 0.244638 0.244465 0.244287 0.244105 0.24393 0.243792 0.243689 0.243577 0.24346 0.243355 0.24325 0.243136 0.243031 0.242921 0.24284 0.242796 0.242757 0.242716 0.242675 0.242625 0.24259 0.24255 0.242509 0.24248 0.242505 0.242534 0.242557 0.242586 0.242617 0.242644 0.242672 0.2427 0.242742 0.242839 0.242947 0.243053 0.243158 0.243261 0.24337 0.243472 0.243579 0.24374 0.243943 0.244135 0.244327 0.244525 0.24471 0.244895 0.245079 0.24532 0.245554 0.24577 0.24597 0.246153 0.246332 0.246513 0.246736 0.246993 0.247243 0.247501 0.247756 0.248008 0.24827 0.248566 0.248925 0.249264 0.249617 0.249963 0.25031 0.250699 0.251159 0.251641 0.252106 0.252581 0.253074 0.253668 0.254309 0.25519 0.256815 0.262312 0.266973 0.266963 0.266987 0.266988 0.266968 0.266979 0.266992 0.266969 0.266959 0.266975 0.266966 0.266962 0.266973 0.266983 0.266971 0.266968 0.26695 0.26697 0.266974 0.26696 0.266967 0.266968 0.266986 0.266978 0.266972 0.266967 0.266974 0.266983 0.266949 0.266992 0.266949 0.26699 0.26698 0.266989 0.266969 0.266972 0.266982 0.266977 0.266989 0.266981 0.266977 0.266959 0.266958 0.266986 0.266972 0.266967 0.266985 0.266966 0.266966 0.266974 0.266975 0.266971 0.266958 0.266981 0.266975 0.26696 0.266971 0.266966 0.266965 0.266972 0.266985 0.266979 0.266972 0.266963 0.266968 0.266973 0.266959 0.266971 0.266971 0.266973 0.266973 0.266975 0.266966 0.266971 0.266956 0.266967 0.266994 0.266991 0.266977 0.266976 0.266947 0.266938 0.266978 0.26697 0.266975 0.266988 0.266987 0.266976 0.266973 0.266962 0.266977 0.266958 0.266979 0.266979 0.266969 0.266989 0.266985 0.266967 0.266975 0.266961 0.266957 0.266966 0.266985 0.26698 0.26698 0.266976 0.266946 0.266975 0.266984 0.26696 0.266971 0.266969 0.266963 0.266973 0.266969 0.266963 0.266959 0.266978 0.26697 0.266978 0.266992 0.266975 0.266971 0.266972 0.266965 0.266961 0.266973 0.266979 0.266988 0.26698 0.266973 0.266953 0.26697 0.266954 0.266985 0.266974 0.266974 0.266993 0.266976 0.266975 0.266987 0.266976 0.266974 0.26696 0.266973 0.266969 0.26697
0.265251 0.265253 0.265257 0.265221 0.265236 0.265269 0.26523 0.26526 0.26524 0.265222 0.26526 0.265257 0.265252 0.265241 0.265243 0.265229 0.265256 0.265239 0.265244 0.265261 0.265234 0.265249 0.265251 0.265223 0.265226 0.26523 0.265255 0.265251 0.265229 0.265257 0.265256 0.265261 0.265251 0.265242 0.265247 0.265246 0.265258 0.265246 0.26524 0.265264 0.26525 0.265247 0.265252 0.265237 0.265214 0.265238 0.265248 0.265224 0.265252 0.265252 0.265236 0.265253 0.265253 0.265242 0.265243 0.265239 0.265238 0.265241 0.265253 0.265231 0.265231 0.265245 0.265233 0.265248 0.265252 0.265262 0.265234 0.265247 0.265242 0.265234 0.265235 0.265254 0.265235 0.26525 0.265247 0.265247 0.265235 0.265254 0.265251 0.265244 0.265243 0.265243 0.265255 0.265248 0.265227 0.265238 0.265225 0.26525 0.265249 0.265238 0.265228 0.265259 0.265251 0.265244 0.265241 0.265228 0.265259 0.265231 0.265235 0.265225 0.265239 0.265247 0.265231 0.265259 0.265261 0.265245 0.265239 0.265239 0.265236 0.265234 0.265253 0.265234 0.265254 0.265248 0.265238 0.265254 0.265252 0.265257 0.26525 0.265233 0.265241 0.265236 0.265249 0.265224 0.26524 0.265246 0.265249 0.265232 0.265252 0.265242 0.265253 0.265243 0.26523 0.265229 0.265246 0.265255 0.265219 0.265244 0.265237 0.26527 0.26523 0.265256 0.265247 0.265238 0.265263 0.265237 0.265249 0.265238 0.265226 0.265246 0.265224 0.265243 0.265228 0.265236 0.26526 0.265242 0.265236 0.265235 0.265253 0.26525 0.26524 0.244001 0.225401 0.224806 0.224526 0.224272 0.224058 0.224145 0.224299 0.224607 0.229657 0.26281 0.265242 0.265235 0.265248 0.265242 0.265264 0.265244 0.26522 0.262567 0.241967 0.240335 0.239198 0.238347 0.237534 0.237016 0.236569 0.236123 0.235721 0.23545 0.235167 0.234859 0.234563 0.234359 0.234219 0.23408 0.233943 0.2338 0.233673 0.233589 0.233513 0.233435 0.233358 0.23328 0.233226 0.233223 0.233224 0.233224 0.233224 0.233227 0.233251 0.233316 0.233388 0.23346 0.233531 0.233604 0.233684 0.233816 0.233961 0.234105 0.234249 0.234396 0.234546 0.234752 0.234976 0.235197 0.235421 0.235644 0.235885 0.236191 0.236507 0.236822 0.237139 0.237465 0.237871 0.238301 0.23874 0.239171 0.239665 0.240265 0.24086 0.241472 0.242229 0.243106 0.24401 0.245316 0.247049 0.262113 0.265236 0.265252 0.265244 0.265236 0.265254 0.265235 0.265236 0.26525 0.265246 0.265258 0.265247 0.265256 0.265247 0.265231 0.265238 0.265244 0.265239 0.265253 0.265246 0.265233 0.265247 0.265238 0.265235 0.265265 0.26523 0.265237 0.265232 0.26524 0.265257 0.265244 0.265245 0.265251 0.265239 0.265246 0.265227 0.265264 0.265257 0.26523 0.265244 0.265231 0.265263 0.26524 0.265258 0.265268 0.265231 0.26525 0.265253 0.265255 0.265246 0.265245 0.26523 0.265251 0.265249 0.265244 0.265231 0.265238 0.265262 0.265244 0.265233 0.265232 0.265249 0.265232 0.265222 0.265217 0.265241 0.265243 0.265248 0.265266 0.26525 0.265263 0.265223 0.265239 0.265241 0.265245 0.265253 0.265233 0.265242 0.265235 0.265229 0.265228 0.265242 0.265261 0.265253 0.265264 0.265236 0.265245 0.265234 0.265241 0.265252 0.265243 0.265246 0.265244 0.265252 0.265245 0.265246 0.265255 0.265243 0.26522 0.265248 0.265253 0.26525 0.265256 0.265252 0.265235 0.265221 0.265251 0.265237 0.265249 0.265236 0.265232 0.265254 0.265255 0.265235 0.265261 0.265243 0.265032 0.263192 0.261157 0.260122 0.259232 0.258325 0.257446 0.256641 0.255974 0.255312 0.254654 0.254009 0.25343 0.252991 0.252626 0.252285 0.251945 0.251603 0.25126 0.250923 0.250603 0.250326 0.250047 0.249777 0.249512 0.249241 0.248964 0.248694 0.24843 0.248212 0.247993 0.247783 0.247566 0.247353 0.24713 0.246918 0.24671 0.246515 0.246354 0.24619 0.246028 0.245868 0.245706 0.245542 0.245377 0.245218 0.245082 0.244971 0.244851 0.244734 0.244622 0.244505 0.244385 0.244262 0.244136 0.244034 0.243948 0.243863 0.243776 0.243684 0.243593 0.243497 0.2434 0.243302 0.243233 0.243192 0.243162 0.243115 0.243076 0.243036 0.242996 0.242953 0.242913 0.242896 0.242919 0.242952 0.242975 0.243008 0.24303 0.243055 0.243088 0.243115 0.243175 0.243266 0.243362 0.243453 0.243546 0.243634 0.243723 0.243808 0.243897 0.24403 0.24417 0.244302 0.244426 0.244547 0.244667 0.244785 0.244911 0.245071 0.245255 0.24543 0.245615 0.245793 0.245977 0.246157 0.246349 0.246595 0.246849 0.247102 0.247356 0.247614 0.247867 0.248134 0.248468 0.248815 0.249157 0.249502 0.249856 0.250201 0.250625 0.251101 0.251563 0.252044 0.252517 0.253079 0.254196 0.255605 0.257835 0.263839 0.265234 0.265238 0.265221 0.26525 0.265234 0.265241 0.265248 0.265233 0.265244 0.265259 0.265243 0.265264 0.265244 0.265241 0.265254 0.265225 0.265249 0.265258 0.265244 0.265249 0.265237 0.265247 0.265231 0.265226 0.265261 0.265225 0.265229 0.265263 0.265228 0.26525 0.265241 0.265239 0.265236 0.265224 0.26525 0.265262 0.265243 0.265239 0.265252 0.265218 0.26526 0.265236 0.265245 0.265259 0.265242 0.265237 0.265233 0.265253 0.265255 0.265234 0.26524 0.265238 0.265243 0.265233 0.265245 0.265239 0.265222 0.265232 0.265231 0.265238 0.265258 0.26523 0.265242 0.265248 0.265248 0.265238 0.265236 0.265233 0.265246 0.265243 0.265226 0.265223 0.265242 0.265243 0.265245 0.26524 0.265258 0.265252 0.265238 0.265247 0.265234 0.265241 0.265239 0.265254 0.265244 0.265244 0.265237 0.265242 0.265258 0.265243 0.265254 0.265249 0.26525 0.265255 0.265247 0.265238 0.265234 0.265255 0.265256 0.265247 0.265244 0.265254 0.265226 0.265241 0.265262 0.265239 0.265257 0.265252 0.265228 0.265252 0.265238 0.265258 0.265244 0.26525 0.26526 0.265231 0.265232 0.265246 0.265229 0.265228 0.265247 0.265264 0.265257 0.265245 0.265235 0.265235 0.265236 0.265213 0.265238 0.265226 0.265247 0.265256 0.265254 0.265226 0.265261 0.265229 0.265244 0.265263 0.265231 0.265229 0.265241 0.265228 0.265255 0.265244 0.265237 0.26526 0.265225
0.263532 0.263545 0.26355 0.263523 0.263543 0.263542 0.263537 0.263536 0.263553 0.263537 0.263542 0.263557 0.263524 0.263524 0.263537 0.263527 0.263537 0.263539 0.263566 0.26356 0.263551 0.263517 0.26353 0.26353 0.263526 0.263543 0.26354 0.263528 0.263507 0.263537 0.263542 0.263532 0.26354 0.263541 0.263523 0.263532 0.263526 0.263558 0.263541 0.263554 0.263527 0.263541 0.263529 0.263539 0.263543 0.263532 0.263531 0.263515 0.263565 0.263546 0.263538 0.263519 0.263559 0.263534 0.263553 0.263554 0.263534 0.263548 0.263541 0.263533 0.263528 0.263545 0.263543 0.263545 0.263524 0.263531 0.263527 0.263533 0.263554 0.263531 0.263535 0.263528 0.26354 0.263546 0.263561 0.26355 0.263543 0.263518 0.263545 0.263558 0.263525 0.263553 0.263539 0.263539 0.263529 0.26353 0.263542 0.263534 0.263552 0.263555 0.263515 0.263531 0.263531 0.263545 0.263536 0.263554 0.263539 0.263546 0.263536 0.263541 0.263531 0.263548 0.263543 0.263538 0.263564 0.263552 0.263533 0.263522 0.263523 0.263539 0.263517 0.263532 0.263534 0.263546 0.263571 0.263535 0.263539 0.263529 0.263537 0.263551 0.263528 0.263538 0.263555 0.26355 0.263538 0.263515 0.263537 0.263553 0.263544 0.263544 0.263533 0.263535 0.263524 0.263534 0.263537 0.263528 0.263532 0.263562 0.263538 0.263538 0.263546 0.263544 0.263531 0.263526 0.263557 0.263537 0.263513 0.263533 0.263553 0.263523 0.263555 0.263546 0.263551 0.263532 0.263542 0.26353 0.263527 0.263543 0.263549 0.26354 0.263544 0.26282 0.234113 0.225275 0.2248 0.224534 0.224272 0.224255 0.224443 0.224635 0.225133 0.241063 0.263539 0.263549 0.263537 0.263523 0.263526 0.263532 0.263557 0.261395 0.24197 0.240352 0.239188 0.238357 0.237485 0.23693 0.23649 0.236049 0.235648 0.235385 0.235131 0.234855 0.234566 0.234359 0.23422 0.234078 0.233939 0.2338 0.233672 0.23359 0.233514 0.233435 0.233358 0.233281 0.233226 0.233223 0.233224 0.233224 0.233224 0.233226 0.23325 0.233317 0.233388 0.23346 0.233531 0.233603 0.233683 0.233819 0.233963 0.234106 0.234251 0.234395 0.234546 0.234752 0.234974 0.235199 0.235419 0.235644 0.235882 0.236192 0.236508 0.236824 0.237139 0.237464 0.237869 0.238309 0.238744 0.239175 0.239666 0.240257 0.240863 0.241475 0.242229 0.243098 0.244018 0.245312 0.247033 0.260466 0.263548 0.263554 0.26354 0.263539 0.263544 0.263543 0.263529 0.263523 0.263541 0.263533 0.263534 0.263534 0.263529 0.263551 0.26355 0.263567 0.263517 0.263518 0.263541 0.263545 0.263546 0.263542 0.263545 0.263551 0.263535 0.263547 0.263541 0.263528 0.263547 0.26354 0.263535 0.263539 0.263534 0.263532 0.263528 0.263556 0.263536 0.263518 0.263549 0.263516 0.26353 0.263539 0.263549 0.26355 0.263545 0.263535 0.263532 0.263533 0.263543 0.263537 0.263532 0.263528 0.263542 0.263543 0.263536 0.263547 0.263529 0.263563 0.263521 0.263539 0.26353 0.263529 0.263535 0.263536 0.263553 0.263543 0.263564 0.263533 0.263528 0.263522 0.263546 0.263528 0.263552 0.263534 0.263545 0.263553 0.263549 0.263525 0.263534 0.263521 0.263542 0.263526 0.263533 0.263534 0.263532 0.26354 0.263536 0.263542 0.263537 0.263509 0.26353 0.263543 0.263544 0.263533 0.263539 0.263532 0.263525 0.263529 0.263541 0.263551 0.263536 0.263548 0.263538 0.263533 0.263523 0.263545 0.263535 0.263549 0.263534 0.263543 0.263528 0.263527 0.263548 0.263534 0.263561 0.263539 0.263542 0.262909 0.261009 0.259535 0.258631 0.257753 0.256913 0.25623 0.255572 0.254905 0.254247 0.253594 0.253044 0.252541 0.25206 0.251623 0.251231 0.250885 0.250551 0.250251 0.249983 0.2497 0.249427 0.249163 0.248893 0.248619 0.24835 0.248101 0.247887 0.247667 0.247456 0.247241 0.247031 0.246813 0.2466 0.246391 0.246213 0.246048 0.245885 0.245721 0.245559 0.245394 0.245238 0.245077 0.244914 0.244786 0.24467 0.244551 0.244437 0.244321 0.244208 0.244092 0.243976 0.243864 0.243776 0.243702 0.243631 0.243562 0.243491 0.243419 0.24335 0.243281 0.243212 0.243161 0.243131 0.243102 0.243079 0.243053 0.243026 0.243003 0.24297 0.242943 0.242934 0.242949 0.242969 0.242989 0.243006 0.243023 0.243044 0.243057 0.243084 0.243123 0.243175 0.243248 0.243309 0.243379 0.243446 0.243508 0.243575 0.243639 0.243745 0.243863 0.243982 0.244098 0.244215 0.244337 0.244457 0.244572 0.244719 0.244897 0.245074 0.245257 0.245435 0.245611 0.245792 0.245976 0.246197 0.246455 0.246715 0.246961 0.247212 0.247472 0.247723 0.248011 0.248358 0.248706 0.24905 0.249401 0.249759 0.250109 0.250562 0.251034 0.251579 0.252306 0.253285 0.254708 0.256216 0.259224 0.263478 0.263523 0.263538 0.263556 0.263522 0.26354 0.263541 0.263526 0.263547 0.263527 0.263528 0.263539 0.263532 0.263542 0.263533 0.263525 0.263549 0.26355 0.263549 0.263548 0.263545 0.263553 0.26353 0.26354 0.263537 0.263536 0.26353 0.263551 0.26353 0.263546 0.263522 0.263529 0.263547 0.263521 0.263527 0.263544 0.263529 0.263553 0.263522 0.263551 0.263544 0.26353 0.263535 0.263522 0.263543 0.263524 0.263557 0.263538 0.26353 0.263523 0.263521 0.263538 0.263536 0.263525 0.263549 0.26354 0.26353 0.263545 0.263548 0.263532 0.263539 0.263544 0.263529 0.263537 0.263555 0.263537 0.26355 0.263519 0.263524 0.263541 0.263538 0.263527 0.263552 0.263543 0.263544 0.263529 0.263539 0.263563 0.263539 0.263527 0.263526 0.263537 0.263535 0.26354 0.263541 0.263536 0.263529 0.263538 0.263547 0.263524 0.26354 0.263524 0.263551 0.263528 0.263533 0.263539 0.263521 0.263529 0.263542 0.263554 0.263527 0.263538 0.263532 0.263548 0.263555 0.263556 0.263533 0.263542 0.263539 0.263514 0.26354 0.26353 0.263546 0.263541 0.263543 0.263531 0.26353 0.263544 0.263537 0.263528 0.263529 0.263552 0.263561 0.263551 0.263543 0.263544 0.263517 0.263529 0.263522 0.26355 0.263539 0.263537 0.263526 0.263541 0.263544 0.26354 0.263551 0.263532 0.263534 0.263543 0.263544 0.263539 0.263532 0.263531 0.263555 0.263532 0.263544 0.263536
0.261847 0.261864 0.261849 0.261848 0.261856 0.261878 0.261845 0.261841 0.261847 0.261859 0.261857 0.261851 0.261851 0.261865 0.261866 0.261878 0.261857 0.261839 0.261847 0.261845 0.261859 0.261846 0.261845 0.261852 0.261836 0.261844 0.261844 0.261861 0.261865 0.261862 0.261853 0.261859 0.26185 0.261838 0.261867 0.261862 0.261863 0.261863 0.261865 0.261862 0.261853 0.26185 0.261868 0.261865 0.261859 0.261853 0.261865 0.261829 0.261845 0.261841 0.261864 0.261839 0.261865 0.261848 0.261852 0.261851 0.261836 0.261842 0.261864 0.261865 0.261845 0.261865 0.261854 0.261874 0.261853 0.261842 0.26185 0.261855 0.261862 0.261874 0.261841 0.261858 0.261836 0.26185 0.261855 0.261839 0.261867 0.261857 0.261842 0.261855 0.261849 0.261844 0.261855 0.261848 0.261845 0.261869 0.26185 0.261871 0.261852 0.261839 0.261845 0.261856 0.261836 0.261873 0.261863 0.261856 0.261867 0.261831 0.261859 0.261843 0.261869 0.261831 0.261869 0.261832 0.261858 0.26186 0.261868 0.261849 0.261854 0.261863 0.261862 0.26186 0.261862 0.26186 0.261846 0.261856 0.261835 0.261866 0.261825 0.261856 0.261843 0.261863 0.261878 0.261877 0.261865 0.261821 0.261846 0.261851 0.261849 0.261864 0.261847 0.261845 0.26185 0.261853 0.261853 0.261851 0.261847 0.261876 0.261839 0.261836 0.261862 0.261853 0.26184 0.261861 0.261857 0.261857 0.261839 0.261838 0.261841 0.261858 0.261853 0.26184 0.261851 0.261829 0.261842 0.261855 0.26185 0.261857 0.261875 0.261864 0.261841 0.26185 0.257481 0.228178 0.225386 0.225011 0.224737 0.224512 0.224609 0.2248 0.225024 0.225813 0.250392 0.261849 0.261853 0.261855 0.261866 0.261865 0.261836 0.259561 0.241967 0.240345 0.239199 0.23833 0.237384 0.236783 0.236396 0.235969 0.235584 0.235326 0.235068 0.23481 0.234549 0.23436 0.23422 0.23408 0.23394 0.233798 0.233673 0.233589 0.233513 0.233435 0.233359 0.233281 0.233226 0.233223 0.233224 0.233224 0.233224 0.233227 0.233251 0.233317 0.233389 0.233459 0.233531 0.233603 0.233683 0.233816 0.233963 0.234105 0.234252 0.234397 0.234546 0.234752 0.234971 0.235195 0.235421 0.235642 0.235881 0.236191 0.236507 0.236822 0.237138 0.237464 0.237874 0.238305 0.238742 0.239175 0.239665 0.240263 0.240866 0.241475 0.242237 0.243103 0.244011 0.245305 0.247073 0.259397 0.261854 0.261854 0.261856 0.261852 0.261844 0.261857 0.261856 0.26185 0.261857 0.26184 0.261875 0.261845 0.261868 0.261881 0.261827 0.261849 0.261841 0.261839 0.261846 0.261868 0.261855 0.26186 0.261861 0.261823 0.261832 0.261849 0.261844 0.261849 0.261853 0.261852 0.261848 0.261857 0.261844 0.261855 0.261855 0.261865 0.261833 0.261845 0.26186 0.261832 0.261871 0.261835 0.261873 0.261853 0.261845 0.261843 0.261849 0.261853 0.261867 0.261846 0.261846 0.261856 0.261853 0.261862 0.261848 0.261885 0.261865 0.261846 0.261861 0.261857 0.26186 0.261863 0.261863 0.261839 0.261834 0.261848 0.261845 0.261863 0.261848 0.261836 0.261861 0.261857 0.261856 0.261855 0.261859 0.26186 0.261864 0.261843 0.261846 0.261858 0.261842 0.26186 0.261862 0.261852 0.261853 0.261847 0.261837 0.261848 0.261835 0.261842 0.261842 0.261861 0.261845 0.261862 0.261846 0.26185 0.261846 0.26184 0.261851 0.261887 0.261862 0.261846 0.26185 0.261838 0.261852 0.261857 0.261849 0.261838 0.261872 0.261848 0.261843 0.261844 0.261848 0.261868 0.261822 0.261853 0.26187 0.261838 0.261868 0.261241 0.259654 0.258088 0.257187 0.256484 0.255816 0.255146 0.254491 0.253837 0.253262 0.252749 0.252246 0.251746 0.251242 0.250747 0.250299 0.249952 0.249642 0.249363 0.249086 0.248811 0.248542 0.248279 0.248015 0.247776 0.247561 0.247345 0.24713 0.246918 0.246708 0.246493 0.246277 0.246076 0.245907 0.245741 0.245581 0.245415 0.245253 0.245098 0.244932 0.24477 0.244611 0.244491 0.244374 0.244257 0.244143 0.244026 0.243913 0.243799 0.243682 0.243569 0.243484 0.243413 0.243343 0.243269 0.2432 0.243129 0.243064 0.242987 0.242922 0.242869 0.24284 0.242814 0.242786 0.242758 0.242732 0.242707 0.242679 0.242655 0.242635 0.242651 0.242671 0.242688 0.242706 0.242725 0.242742 0.242762 0.242779 0.24281 0.242871 0.242934 0.243002 0.243065 0.243133 0.243202 0.243261 0.243329 0.243416 0.243535 0.243656 0.243764 0.243892 0.244011 0.244123 0.244245 0.244375 0.244547 0.244717 0.244903 0.245082 0.245263 0.245442 0.245623 0.245817 0.246061 0.246316 0.246565 0.246816 0.24707 0.247325 0.247583 0.247915 0.248257 0.248604 0.248947 0.249295 0.249658 0.250162 0.250912 0.25178 0.252644 0.253793 0.255255 0.257066 0.260996 0.261841 0.261854 0.261863 0.261852 0.261841 0.261862 0.261853 0.261847 0.261865 0.261859 0.261855 0.261843 0.261853 0.261842 0.261856 0.261847 0.261853 0.261837 0.261854 0.261853 0.261862 0.261866 0.261867 0.261878 0.261847 0.261849 0.261864 0.261852 0.261851 0.26184 0.261855 0.261856 0.26184 0.26187 0.261851 0.261852 0.261855 0.261822 0.261851 0.26186 0.261853 0.261865 0.26184 0.261842 0.261853 0.261853 0.261867 0.261848 0.261869 0.261879 0.261837 0.261856 0.26184 0.261862 0.261868 0.261856 0.261861 0.261862 0.261852 0.261864 0.261846 0.261849 0.261874 0.261871 0.261844 0.261861 0.261858 0.261844 0.261856 0.261852 0.261846 0.261853 0.261857 0.261847 0.261855 0.26186 0.261854 0.261847 0.261844 0.26185 0.261844 0.261864 0.261859 0.261851 0.261836 0.261841 0.26184 0.261853 0.261833 0.261851 0.261854 0.261841 0.261857 0.261855 0.261838 0.261849 0.261852 0.26187 0.261837 0.261861 0.261869 0.261853 0.261859 0.261837 0.261852 0.261869 0.261877 0.261847 0.261872 0.261857 0.261855 0.261867 0.261854 0.261844 0.261843 0.261851 0.261849 0.261841 0.261851 0.261845 0.261859 0.261861 0.261826 0.261877 0.261851 0.261855 0.261857 0.261853 0.261862 0.261876 0.261848 0.261841 0.261859 0.261866 0.261861 0.261869 0.261841 0.26185 0.261848 0.261855 0.261855 0.261869 0.261853 0.261858 0.26184 0.261855 0.261847 0.261867
0.260201 0.260197 0.260184 0.260197 0.260189 0.260197 0.260186 0.260178 0.260202 0.260199 0.260195 0.260186 0.260185 0.260181 0.260215 0.260185 0.260189 0.260193 0.260203 0.260188 0.260208 0.260209 0.260214 0.260188 0.260194 0.260198 0.260188 0.260188 0.260195 0.260206 0.26019 0.260193 0.260202 0.260206 0.26018 0.260197 0.26018 0.260188 0.260192 0.260179 0.2602 0.260173 0.260186 0.260207 0.260188 0.260195 0.260184 0.260206 0.260218 0.260203 0.260187 0.260192 0.260196 0.260197 0.260189 0.260186 0.260187 0.260186 0.260162 0.260204 0.260193 0.260186 0.260205 0.260187 0.260185 0.260191 0.260194 0.260194 0.260187 0.260179 0.260212 0.26019 0.260196 0.260197 0.260205 0.260183 0.260199 0.260184 0.260184 0.26018 0.260178 0.260188 0.260183 0.26018 0.260171 0.260185 0.260191 0.260213 0.26021 0.2602 0.260192 0.260194 0.260196 0.260204 0.26019 0.260193 0.2602 0.260182 0.260194 0.260197 0.260165 0.26022 0.260199 0.26018 0.26018 0.260186 0.260194 0.260194 0.26019 0.260179 0.260192 0.260177 0.260174 0.260185 0.260181 0.260187 0.260195 0.260189 0.260174 0.260182 0.260202 0.260212 0.260176 0.260206 0.260178 0.260185 0.2602 0.260199 0.260191 0.26019 0.260183 0.260197 0.260192 0.26019 0.260186 0.260187 0.260199 0.260192 0.26017 0.260186 0.260196 0.260194 0.260198 0.260182 0.260198 0.260183 0.260191 0.260199 0.260184 0.260195 0.260207 0.260184 0.260199 0.260195 0.260193 0.260198 0.260194 0.26019 0.260186 0.260194 0.26019 0.260182 0.260189 0.249302 0.226377 0.225569 0.225258 0.224976 0.224816 0.22497 0.225161 0.225466 0.22636 0.240656 0.259029 0.26018 0.260086 0.260205 0.260197 0.25808 0.241951 0.240346 0.239195 0.23829 0.237257 0.236615 0.236251 0.23587 0.235516 0.235251 0.234993 0.23471 0.234468 0.23435 0.234219 0.234079 0.233939 0.233799 0.233672 0.23359 0.233514 0.233434 0.233359 0.233281 0.233226 0.233223 0.233224 0.233224 0.233224 0.233227 0.233251 0.233316 0.233388 0.23346 0.233531 0.233604 0.233683 0.233816 0.233961 0.234106 0.23425 0.234397 0.234547 0.234752 0.234973 0.235199 0.235422 0.235646 0.235885 0.236192 0.236508 0.236821 0.237136 0.237467 0.237873 0.238306 0.238739 0.239173 0.239663 0.240255 0.240855 0.241483 0.242238 0.243112 0.244005 0.245314 0.247085 0.257848 0.260206 0.260211 0.260184 0.260173 0.260184 0.260172 0.260198 0.260195 0.260176 0.26019 0.260188 0.260188 0.260199 0.26018 0.260194 0.260174 0.260209 0.260186 0.260196 0.260186 0.260181 0.260184 0.260189 0.260195 0.260193 0.260182 0.260197 0.26021 0.260183 0.260197 0.260193 0.260198 0.260193 0.260198 0.260183 0.260196 0.260184 0.260178 0.260192 0.260177 0.260193 0.260181 0.260186 0.26021 0.260188 0.260181 0.260191 0.260184 0.26017 0.260188 0.26018 0.260203 0.260197 0.260182 0.260179 0.260204 0.260211 0.260202 0.260195 0.260185 0.260202 0.260189 0.260204 0.260187 0.260191 0.260204 0.260184 0.260191 0.260184 0.26018 0.260169 0.260179 0.26019 0.260178 0.260204 0.26018 0.26018 0.2602 0.260184 0.26019 0.260199 0.260183 0.260184 0.260209 0.260191 0.260213 0.260212 0.260197 0.260187 0.260192 0.260184 0.260201 0.260176 0.260194 0.260197 0.260192 0.260194 0.26018 0.260199 0.260168 0.260176 0.260199 0.2602 0.260187 0.260191 0.260193 0.260197 0.260192 0.260193 0.26021 0.260185 0.260196 0.260185 0.260195 0.260202 0.260185 0.260196 0.26019 0.260184 0.260202 0.260181 0.259841 0.258346 0.25684 0.256063 0.255409 0.254746 0.254086 0.25348 0.252963 0.252462 0.251953 0.251454 0.250948 0.250453 0.250047 0.249656 0.249271 0.248893 0.248551 0.24823 0.247931 0.247672 0.247453 0.247241 0.247022 0.246808 0.246597 0.246383 0.246172 0.24596 0.245764 0.245596 0.245434 0.245273 0.24511 0.24495 0.244787 0.244625 0.244463 0.244312 0.244195 0.244078 0.243966 0.243851 0.243732 0.243616 0.243508 0.243388 0.243276 0.243191 0.24312 0.243049 0.242983 0.24291 0.242844 0.242771 0.242697 0.242631 0.242573 0.242549 0.242523 0.242496 0.24247 0.242445 0.242419 0.24239 0.242364 0.242344 0.242353 0.242376 0.242392 0.242409 0.242429 0.242446 0.242464 0.242484 0.242506 0.242562 0.242627 0.242693 0.242757 0.242829 0.24289 0.242959 0.243017 0.243095 0.24321 0.243327 0.243446 0.243564 0.243682 0.243798 0.243914 0.244037 0.244188 0.244371 0.244545 0.244729 0.244905 0.245086 0.245265 0.245447 0.245669 0.245919 0.246173 0.246424 0.246675 0.246934 0.247182 0.247466 0.247803 0.24818 0.248614 0.249122 0.249691 0.250414 0.251281 0.252149 0.25305 0.25437 0.255819 0.258825 0.260177 0.26021 0.26019 0.260205 0.2602 0.260174 0.260207 0.260199 0.260197 0.260201 0.260195 0.260191 0.260178 0.260189 0.260183 0.26019 0.260189 0.260197 0.26019 0.260195 0.260197 0.26019 0.260203 0.260166 0.260188 0.26019 0.260178 0.260209 0.260198 0.260174 0.260206 0.260199 0.260192 0.260217 0.260187 0.260197 0.260187 0.260177 0.260197 0.2602 0.260185 0.26019 0.260187 0.26019 0.260192 0.260197 0.260202 0.260187 0.260185 0.260204 0.260199 0.260185 0.260205 0.260185 0.260195 0.260191 0.260205 0.260193 0.260188 0.260193 0.260168 0.260189 0.260184 0.260184 0.260183 0.260181 0.260204 0.260187 0.260189 0.260195 0.260172 0.260192 0.260174 0.260193 0.260169 0.260172 0.260193 0.260207 0.260183 0.260198 0.260195 0.260203 0.260187 0.260185 0.260207 0.26019 0.26022 0.260192 0.260191 0.260193 0.260175 0.260202 0.260182 0.260178 0.260217 0.260197 0.260166 0.260192 0.260197 0.260204 0.260202 0.260198 0.260185 0.260182 0.260184 0.260186 0.260189 0.260207 0.260212 0.260194 0.260176 0.260181 0.260202 0.260189 0.260191 0.260174 0.260196 0.260202 0.2602 0.260189 0.260197 0.260189 0.260199 0.260191 0.260168 0.260192 0.260177 0.260184 0.260173 0.260209 0.260177 0.260178 0.260187 0.260193 0.260178 0.260193 0.260192 0.260194 0.260215 0.260188 0.260199 0.26018 0.260195 0.260174 0.260191 0.260203 0.260207 0.260178 0.260184
0.258555 0.258549 0.258544 0.25854 0.258556 0.258544 0.258536 0.258564 0.258541 0.258539 0.25854 0.258557 0.258563 0.25856 0.258542 0.258548 0.258557 0.258531 0.258566 0.258537 0.258516 0.25856 0.258543 0.258543 0.258572 0.25855 0.258548 0.258561 0.258553 0.258552 0.258554 0.258542 0.258543 0.258535 0.258553 0.258572 0.258547 0.258535 0.258535 0.258551 0.258548 0.258545 0.258547 0.258555 0.258539 0.258555 0.258561 0.258543 0.258562 0.258563 0.25854 0.258532 0.25855 0.258547 0.258543 0.258546 0.258563 0.258544 0.258537 0.258549 0.258542 0.258539 0.258548 0.258541 0.258565 0.258562 0.258545 0.25855 0.25854 0.258553 0.258545 0.258574 0.258552 0.258549 0.258562 0.258531 0.25854 0.258557 0.258548 0.258554 0.258534 0.25856 0.258551 0.258558 0.258558 0.258558 0.258544 0.258542 0.258554 0.258573 0.258538 0.258538 0.25858 0.25855 0.258561 0.258566 0.258543 0.258546 0.25854 0.258541 0.258547 0.258535 0.258553 0.258562 0.258548 0.258554 0.258556 0.258536 0.258535 0.25852 0.258559 0.258534 0.258536 0.258556 0.258565 0.258552 0.258538 0.258541 0.258526 0.258533 0.258544 0.258551 0.258545 0.258543 0.258557 0.25856 0.258552 0.258542 0.258554 0.258544 0.25856 0.258549 0.258562 0.258564 0.258551 0.258548 0.258555 0.25854 0.258541 0.258562 0.258544 0.25857 0.258544 0.258556 0.258561 0.258549 0.258549 0.258549 0.258541 0.258574 0.258556 0.258557 0.258552 0.258538 0.258538 0.258544 0.258551 0.258549 0.25854 0.258539 0.25857 0.258531 0.258571 0.258555 0.241633 0.226416 0.225797 0.225497 0.225222 0.225156 0.225333 0.225542 0.225926 0.226599 0.23218 0.249127 0.258358 0.258542 0.258545 0.25687 0.241982 0.240348 0.239183 0.237926 0.23654 0.235882 0.23542 0.235227 0.235211 0.235098 0.234847 0.234569 0.23441 0.23432 0.234214 0.23408 0.23394 0.233801 0.233673 0.233589 0.233513 0.233435 0.233359 0.23328 0.233226 0.233223 0.233224 0.233224 0.233224 0.233226 0.233251 0.233316 0.233389 0.233459 0.233532 0.233604 0.233683 0.233818 0.233962 0.234104 0.234251 0.234397 0.234546 0.234751 0.234973 0.235197 0.235424 0.235642 0.235884 0.23619 0.236508 0.236824 0.237136 0.237468 0.237873 0.238305 0.23874 0.239175 0.239671 0.240266 0.240862 0.241473 0.242236 0.243105 0.244014 0.245305 0.247054 0.256637 0.258543 0.258569 0.258553 0.25855 0.258547 0.258547 0.258553 0.258563 0.258563 0.258547 0.258553 0.258559 0.258561 0.258538 0.258547 0.258554 0.258556 0.258553 0.258549 0.258548 0.258568 0.258547 0.258553 0.258547 0.258549 0.258552 0.258562 0.258537 0.25856 0.258531 0.258541 0.258538 0.258557 0.258547 0.258546 0.258541 0.258551 0.258547 0.258542 0.258558 0.258554 0.258534 0.258565 0.258558 0.25855 0.258555 0.258544 0.258558 0.258537 0.25857 0.258537 0.258552 0.258547 0.258559 0.258559 0.25854 0.258549 0.258549 0.258552 0.258534 0.258548 0.258556 0.258525 0.258548 0.258543 0.258566 0.25855 0.258559 0.258551 0.25854 0.258543 0.258569 0.258546 0.258545 0.258548 0.258551 0.258554 0.258539 0.258554 0.258562 0.258545 0.258558 0.258547 0.258543 0.258546 0.258554 0.258557 0.258533 0.258562 0.258532 0.258546 0.258535 0.258555 0.258544 0.258557 0.258543 0.25855 0.25856 0.258557 0.258552 0.258547 0.258541 0.258543 0.258545 0.258553 0.258564 0.258547 0.258557 0.258543 0.258541 0.258528 0.258547 0.258566 0.258542 0.258542 0.258553 0.258553 0.258549 0.258563 0.258561 0.258547 0.25855 0.258559 0.25845 0.25755 0.256339 0.255034 0.254324 0.2537 0.25317 0.252671 0.252165 0.251654 0.251168 0.250665 0.250229 0.249842 0.249449 0.249063 0.248672 0.248288 0.247908 0.247544 0.247256 0.24699 0.24674 0.246504 0.246281 0.246066 0.245857 0.245643 0.245454 0.245291 0.245126 0.244966 0.244805 0.244642 0.244485 0.244325 0.244164 0.244017 0.243898 0.243786 0.243666 0.243555 0.243441 0.243324 0.243213 0.243094 0.242982 0.2429 0.242833 0.242761 0.242691 0.242624 0.242553 0.242484 0.242411 0.242343 0.242281 0.24226 0.242231 0.242205 0.242183 0.242152 0.242124 0.242101 0.242073 0.24205 0.242061 0.242077 0.242097 0.242115 0.242134 0.242149 0.242168 0.242189 0.242207 0.242257 0.242321 0.242382 0.242452 0.242518 0.242581 0.242651 0.242713 0.242777 0.242882 0.242999 0.24312 0.243233 0.243353 0.24347 0.24359 0.243709 0.243844 0.24401 0.244193 0.244375 0.24455 0.24473 0.244907 0.245087 0.245282 0.245523 0.245778 0.246029 0.246287 0.24655 0.246848 0.247194 0.24769 0.248254 0.248825 0.249383 0.249981 0.250769 0.251635 0.252513 0.253492 0.255103 0.257558 0.258548 0.258562 0.258542 0.25853 0.258554 0.258549 0.258562 0.258556 0.258544 0.258536 0.258546 0.258571 0.258547 0.258562 0.258531 0.258547 0.258555 0.258547 0.258568 0.258552 0.258533 0.258538 0.258561 0.258542 0.258546 0.258527 0.258535 0.25856 0.258551 0.258535 0.258551 0.25856 0.258542 0.258559 0.258554 0.258567 0.258541 0.258539 0.258535 0.258519 0.258565 0.258551 0.258545 0.258564 0.258542 0.258545 0.25855 0.258553 0.258548 0.258561 0.258545 0.258543 0.258543 0.258543 0.25854 0.258551 0.258544 0.258548 0.258534 0.258553 0.258546 0.258544 0.258555 0.258539 0.258547 0.258537 0.258546 0.258565 0.258528 0.258559 0.258562 0.258552 0.258556 0.258534 0.258553 0.258544 0.258555 0.25855 0.258547 0.25853 0.258545 0.25855 0.258557 0.25856 0.258536 0.258563 0.258553 0.258547 0.258548 0.258561 0.258556 0.258551 0.258564 0.258566 0.258536 0.258533 0.258567 0.258533 0.258545 0.258548 0.258541 0.258554 0.258558 0.258547 0.258552 0.25856 0.25854 0.258558 0.258561 0.258543 0.258553 0.258543 0.258565 0.258556 0.258544 0.258561 0.258536 0.258545 0.258536 0.25855 0.258531 0.258553 0.258554 0.258541 0.258581 0.258557 0.258546 0.25854 0.258544 0.258546 0.258554 0.258548 0.258568 0.258545 0.258559 0.258563 0.258532 0.258549 0.258551 0.258554 0.258564 0.258553 0.258529 0.258543 0.258573 0.258545 0.258539 0.258542 0.258543 0.258555
0.256932 0.256919 0.256928 0.256927 0.256928 0.256927 0.256945 0.256934 0.25693 0.256929 0.25693 0.256924 0.256925 0.256949 0.256922 0.25692 0.256918 0.256931 0.256925 0.256925 0.256927 0.256929 0.25695 0.256933 0.256918 0.256919 0.256929 0.256906 0.256928 0.256929 0.256924 0.256933 0.256945 0.256937 0.256925 0.256925 0.256922 0.256929 0.256923 0.256936 0.256928 0.256922 0.256925 0.25692 0.256932 0.256946 0.256926 0.256944 0.256937 0.256928 0.256924 0.25694 0.256936 0.256911 0.256939 0.256938 0.256911 0.256938 0.256938 0.256951 0.256916 0.256939 0.256919 0.256918 0.256928 0.256922 0.256922 0.256919 0.256918 0.256928 0.256935 0.256925 0.256924 0.256927 0.256932 0.256942 0.256918 0.256929 0.256936 0.256925 0.256925 0.256924 0.256938 0.256925 0.256919 0.256943 0.25693 0.256929 0.256936 0.256921 0.25693 0.256914 0.256963 0.256929 0.256921 0.256918 0.256922 0.256924 0.256939 0.25693 0.256939 0.256912 0.256947 0.256932 0.25691 0.256893 0.256947 0.256925 0.256925 0.256931 0.256931 0.256909 0.256935 0.256929 0.256929 0.256925 0.256924 0.256925 0.256934 0.256914 0.256944 0.256928 0.256917 0.256923 0.256927 0.256945 0.256931 0.256936 0.256949 0.256934 0.25691 0.256915 0.256922 0.256935 0.25693 0.256932 0.256923 0.256932 0.256931 0.256938 0.256932 0.256915 0.256927 0.256928 0.256926 0.256921 0.256935 0.256924 0.25693 0.256923 0.256908 0.256911 0.256927 0.256943 0.256931 0.256924 0.256936 0.256926 0.256924 0.256938 0.256928 0.256929 0.256919 0.256927 0.256944 0.243876 0.227064 0.226046 0.22575 0.225483 0.225517 0.225723 0.225962 0.226319 0.226936 0.227592 0.232642 0.239928 0.244596 0.247888 0.239951 0.238175 0.235964 0.23465 0.234438 0.234304 0.23432 0.234397 0.234468 0.234545 0.234574 0.234469 0.234374 0.234287 0.234189 0.234076 0.23394 0.2338 0.233673 0.23359 0.233514 0.233434 0.233358 0.23328 0.233226 0.233223 0.233224 0.233224 0.233224 0.233227 0.23325 0.233315 0.233389 0.23346 0.23353 0.233603 0.233683 0.233817 0.233961 0.234107 0.234252 0.234397 0.234545 0.234754 0.234975 0.235198 0.23542 0.235643 0.235883 0.236192 0.236508 0.23682 0.23714 0.237466 0.237873 0.238309 0.238737 0.239178 0.239664 0.240263 0.24087 0.241468 0.242232 0.243102 0.24401 0.245303 0.247052 0.2553 0.256909 0.256927 0.256932 0.256917 0.256949 0.256939 0.256947 0.256928 0.256932 0.25692 0.256918 0.256943 0.256938 0.256912 0.25696 0.256945 0.256915 0.256913 0.256931 0.25692 0.25693 0.256926 0.2569 0.256939 0.256935 0.256946 0.256923 0.256927 0.256945 0.256918 0.256928 0.256919 0.256939 0.256936 0.256933 0.256921 0.256921 0.256937 0.256929 0.256941 0.256924 0.256919 0.256931 0.256933 0.256916 0.256935 0.25694 0.256924 0.256955 0.256934 0.256925 0.256915 0.256936 0.256934 0.256913 0.256934 0.256951 0.256941 0.25692 0.256929 0.256912 0.256912 0.256935 0.25695 0.256917 0.256919 0.256927 0.256924 0.256912 0.256932 0.256934 0.256932 0.256923 0.256925 0.256922 0.256922 0.256939 0.256923 0.256927 0.256924 0.256931 0.25695 0.256923 0.256919 0.256942 0.256931 0.256937 0.25692 0.256927 0.25694 0.256931 0.256917 0.256922 0.256904 0.256915 0.256933 0.256932 0.256939 0.256925 0.256919 0.25694 0.256931 0.256954 0.25694 0.256921 0.256939 0.25693 0.256931 0.256931 0.25694 0.256951 0.256933 0.256929 0.25693 0.256938 0.256944 0.256932 0.256923 0.256938 0.256937 0.256928 0.256927 0.256935 0.256931 0.256935 0.256938 0.256746 0.255745 0.254465 0.253404 0.252881 0.252373 0.251872 0.251367 0.250866 0.250417 0.250026 0.249636 0.249245 0.248856 0.248474 0.248087 0.247713 0.247408 0.247109 0.246814 0.246516 0.246219 0.245926 0.245652 0.245394 0.24518 0.245003 0.244827 0.244667 0.244504 0.244345 0.244185 0.244025 0.24386 0.243718 0.243604 0.24349 0.243374 0.24326 0.243148 0.243032 0.242915 0.242804 0.242696 0.242614 0.242545 0.242472 0.242403 0.242333 0.24226 0.242193 0.242123 0.242055 0.241996 0.241972 0.241945 0.241914 0.24189 0.241862 0.241834 0.241812 0.241783 0.241762 0.241765 0.241785 0.241804 0.241817 0.241836 0.241851 0.241877 0.241888 0.241914 0.241948 0.242014 0.242079 0.242145 0.242209 0.242275 0.24234 0.242404 0.242473 0.242556 0.242677 0.242787 0.242912 0.243027 0.243147 0.243265 0.24338 0.243502 0.243665 0.243836 0.244021 0.244196 0.244377 0.244553 0.244732 0.244921 0.245174 0.245484 0.245833 0.246204 0.246587 0.246975 0.247406 0.247967 0.248528 0.249099 0.249663 0.250296 0.251137 0.252004 0.252886 0.254657 0.256644 0.256923 0.256924 0.256924 0.25693 0.256927 0.256939 0.256955 0.256917 0.256925 0.256923 0.256922 0.256926 0.256919 0.256916 0.256936 0.256918 0.256912 0.25693 0.256921 0.256921 0.256937 0.256931 0.25692 0.256948 0.256915 0.256929 0.256925 0.256914 0.256936 0.256936 0.256915 0.256938 0.256927 0.25693 0.256931 0.256936 0.256951 0.256927 0.256915 0.256932 0.256927 0.256931 0.256932 0.256931 0.25693 0.256928 0.256936 0.256927 0.25693 0.256925 0.256918 0.256924 0.256923 0.256937 0.256919 0.256921 0.256935 0.256926 0.256934 0.256923 0.256898 0.256934 0.256927 0.25691 0.256931 0.256928 0.256921 0.256922 0.256921 0.256937 0.256946 0.256935 0.256948 0.256914 0.256924 0.25693 0.2569 0.256938 0.256921 0.256936 0.256948 0.256933 0.256938 0.25694 0.256931 0.256932 0.256918 0.256928 0.256935 0.256926 0.256941 0.256932 0.256915 0.256943 0.256935 0.256917 0.256929 0.256938 0.256932 0.256932 0.256918 0.256926 0.256927 0.256936 0.256926 0.25693 0.256932 0.256933 0.256945 0.256927 0.25692 0.256946 0.256924 0.256933 0.256927 0.25693 0.256951 0.256916 0.256949 0.256918 0.256928 0.256912 0.256923 0.256944 0.256917 0.256942 0.256914 0.256928 0.256919 0.256925 0.256922 0.256935 0.256926 0.256941 0.256952 0.256933 0.256911 0.256927 0.256922 0.25693 0.256926 0.256911 0.256928 0.256953 0.256931 0.256926 0.256936 0.256912 0.256937 0.256924 0.256937
0.255334 0.255331 0.255341 0.255317 0.255319 0.255327 0.255333 0.255347 0.255323 0.255321 0.255351 0.25535 0.255323 0.255315 0.255331 0.255321 0.255327 0.255323 0.25534 0.255331 0.255327 0.255334 0.25533 0.255313 0.255314 0.25534 0.255321 0.255323 0.255331 0.25533 0.255334 0.255327 0.255324 0.255335 0.25532 0.255315 0.255333 0.255321 0.255329 0.255344 0.255337 0.255326 0.255316 0.255327 0.255326 0.25533 0.255331 0.255339 0.255319 0.255337 0.255324 0.255322 0.255346 0.255325 0.255325 0.25531 0.255327 0.255314 0.255332 0.255327 0.255315 0.255332 0.255321 0.255324 0.255337 0.255322 0.255319 0.255323 0.25534 0.255327 0.255326 0.255336 0.255331 0.255336 0.255329 0.255316 0.255328 0.255336 0.25536 0.255338 0.255327 0.255336 0.25533 0.25533 0.255331 0.255333 0.255335 0.255317 0.255337 0.255325 0.255318 0.25533 0.255332 0.255305 0.255311 0.255331 0.255319 0.255339 0.255329 0.25533 0.255325 0.255334 0.255316 0.255321 0.255305 0.255335 0.255334 0.255336 0.255328 0.255349 0.25532 0.255304 0.255331 0.255327 0.255321 0.255318 0.255334 0.255337 0.255319 0.255339 0.255327 0.255335 0.255329 0.255322 0.255318 0.255318 0.255334 0.255332 0.255331 0.255319 0.255316 0.255323 0.255339 0.255335 0.255342 0.255343 0.255322 0.255318 0.255339 0.255325 0.255335 0.255337 0.255324 0.255328 0.255327 0.255315 0.255314 0.255319 0.255338 0.255342 0.255326 0.255324 0.25532 0.255321 0.255339 0.255317 0.255329 0.255331 0.255344 0.255321 0.255315 0.25532 0.255316 0.255319 0.255329 0.255335 0.24732 0.229098 0.226488 0.226195 0.225931 0.225973 0.226198 0.226453 0.226744 0.227266 0.22787 0.228455 0.22923 0.230061 0.230765 0.23145 0.232027 0.232475 0.232872 0.233222 0.233441 0.233556 0.233648 0.233813 0.234088 0.234365 0.234338 0.234252 0.234155 0.234057 0.233938 0.233798 0.233673 0.233589 0.233513 0.233434 0.233358 0.233281 0.233226 0.233223 0.233224 0.233224 0.233224 0.233227 0.233251 0.233315 0.233388 0.23346 0.23353 0.233604 0.233684 0.233818 0.233962 0.234105 0.234251 0.234397 0.234546 0.234752 0.234978 0.235199 0.235422 0.235642 0.235884 0.236192 0.236505 0.236822 0.237142 0.237469 0.237868 0.238304 0.23874 0.23918 0.239667 0.240263 0.240869 0.241473 0.242235 0.243104 0.244008 0.245309 0.247043 0.253999 0.255318 0.255323 0.255307 0.255332 0.255342 0.25532 0.255326 0.255326 0.255312 0.255334 0.255333 0.255326 0.255342 0.255316 0.255324 0.255318 0.25534 0.255349 0.255341 0.255311 0.255322 0.255322 0.255324 0.255336 0.255345 0.25532 0.255324 0.255324 0.255317 0.255319 0.255323 0.255339 0.255343 0.255319 0.255345 0.255316 0.255336 0.255322 0.255326 0.255354 0.255324 0.255334 0.255332 0.255314 0.255316 0.255339 0.255323 0.255337 0.255333 0.255326 0.25531 0.255332 0.255323 0.255347 0.25533 0.255315 0.255336 0.255319 0.255315 0.25533 0.255328 0.255336 0.255336 0.255342 0.255336 0.255306 0.255314 0.255339 0.255321 0.255342 0.255356 0.255315 0.255318 0.255309 0.255337 0.255333 0.255325 0.255343 0.255322 0.255328 0.255331 0.255328 0.255335 0.255341 0.255331 0.255316 0.255317 0.255316 0.255331 0.25533 0.255303 0.255326 0.255335 0.255335 0.255321 0.255331 0.25531 0.255324 0.255332 0.255324 0.255323 0.255333 0.255326 0.255331 0.255316 0.255329 0.255344 0.255343 0.255342 0.255312 0.255323 0.255339 0.255328 0.255339 0.255327 0.255329 0.255321 0.255332 0.255334 0.255337 0.255319 0.255336 0.255327 0.255315 0.255332 0.255328 0.255318 0.25532 0.255335 0.255104 0.254267 0.253296 0.252263 0.25158 0.251071 0.250604 0.250214 0.249815 0.249433 0.249042 0.248654 0.248267 0.247886 0.247577 0.247275 0.246982 0.246687 0.246382 0.246089 0.245789 0.2455 0.245246 0.245029 0.244804 0.244583 0.244369 0.24416 0.243959 0.243771 0.243587 0.243433 0.243319 0.243196 0.243083 0.24297 0.242853 0.242741 0.242622 0.242512 0.242403 0.242323 0.242254 0.242188 0.242116 0.242047 0.241977 0.241906 0.241839 0.241767 0.241707 0.24168 0.241651 0.241626 0.241605 0.241577 0.241548 0.241522 0.241497 0.241471 0.241469 0.241489 0.241505 0.241528 0.241543 0.241559 0.241581 0.241599 0.241612 0.241642 0.241707 0.241773 0.241837 0.241905 0.241969 0.242035 0.2421 0.242165 0.242241 0.242352 0.242467 0.242588 0.242704 0.242821 0.242939 0.243058 0.243174 0.243318 0.243506 0.243715 0.243929 0.244163 0.244407 0.244661 0.244929 0.24527 0.245656 0.24604 0.246428 0.246813 0.247196 0.247667 0.248231 0.248802 0.24937 0.249943 0.25065 0.251508 0.25299 0.254479 0.255318 0.255316 0.255314 0.255316 0.255344 0.255326 0.255343 0.255347 0.255316 0.25531 0.255324 0.255312 0.255315 0.255338 0.255317 0.255332 0.255324 0.255338 0.255319 0.255342 0.255331 0.255334 0.255327 0.255324 0.255323 0.255329 0.255319 0.255324 0.255339 0.255305 0.25533 0.255321 0.255333 0.255322 0.255333 0.255328 0.255318 0.255325 0.255328 0.255332 0.255319 0.255336 0.255322 0.255327 0.255334 0.255322 0.255327 0.255308 0.255343 0.255351 0.255323 0.255334 0.255324 0.255318 0.255346 0.255318 0.255341 0.255349 0.255296 0.255317 0.255298 0.25532 0.255351 0.255341 0.25533 0.255312 0.255322 0.255318 0.255322 0.25534 0.25533 0.255339 0.255348 0.255325 0.255337 0.25532 0.25533 0.255351 0.255313 0.255341 0.255325 0.255334 0.255324 0.255328 0.255346 0.255302 0.25532 0.255336 0.255314 0.255321 0.255332 0.255351 0.255317 0.255323 0.255321 0.255327 0.255326 0.255326 0.255333 0.255324 0.255328 0.25533 0.255323 0.255348 0.255312 0.255331 0.255345 0.255326 0.255351 0.255325 0.255347 0.255342 0.25533 0.25533 0.255314 0.255325 0.255321 0.255347 0.255308 0.255325 0.255321 0.255323 0.255325 0.255332 0.255315 0.25531 0.255326 0.255309 0.255339 0.255312 0.25534 0.255342 0.255325 0.255311 0.255313 0.255329 0.255336 0.255321 0.255335 0.255346 0.255327 0.255309 0.255338 0.255347 0.255321 0.255354 0.255332 0.25533 0.255314 0.255319 0.255309 0.255341 0.255326
0.253744 0.253747 0.253753 0.253751 0.253766 0.253756 0.253737 0.253737 0.253752 0.25375 0.253748 0.253759 0.253742 0.253742 0.253728 0.253736 0.253759 0.253739 0.253742 0.253729 0.253739 0.253736 0.25374 0.253748 0.253723 0.253738 0.253773 0.253747 0.253761 0.253743 0.253738 0.253751 0.25375 0.253752 0.253765 0.253762 0.253768 0.253742 0.253741 0.253721 0.253748 0.253754 0.253727 0.253772 0.253732 0.253748 0.253751 0.253747 0.253742 0.253756 0.253744 0.253742 0.253759 0.25376 0.253748 0.253749 0.253754 0.253747 0.253763 0.253742 0.253736 0.253759 0.253743 0.253747 0.253745 0.253747 0.253735 0.25376 0.253737 0.25377 0.253752 0.253745 0.253735 0.253735 0.253754 0.253737 0.253758 0.253745 0.253748 0.253749 0.253753 0.253744 0.253739 0.25376 0.253744 0.253738 0.253731 0.253731 0.253741 0.25376 0.253755 0.253738 0.253751 0.253741 0.253743 0.253757 0.253738 0.253751 0.253722 0.253747 0.253736 0.253743 0.253735 0.253744 0.253734 0.253734 0.253751 0.253767 0.25376 0.253753 0.253738 0.253771 0.253743 0.253739 0.253755 0.253755 0.253726 0.253756 0.253764 0.253739 0.253745 0.253749 0.253724 0.253762 0.253751 0.253735 0.253744 0.253732 0.253746 0.253743 0.253755 0.253757 0.253764 0.253739 0.253746 0.253758 0.253746 0.253748 0.253754 0.25375 0.253743 0.253733 0.253747 0.253744 0.25374 0.253744 0.253734 0.253752 0.253756 0.253741 0.253773 0.253757 0.253761 0.25374 0.253754 0.253735 0.253747 0.253739 0.253741 0.253763 0.253737 0.253735 0.253755 0.253749 0.253746 0.25374 0.253743 0.250058 0.235304 0.227063 0.22676 0.226475 0.226453 0.226682 0.226943 0.227228 0.227603 0.228134 0.228727 0.229281 0.229767 0.23025 0.230761 0.23122 0.231658 0.23208 0.232469 0.232823 0.233177 0.233523 0.233863 0.234189 0.234277 0.234217 0.234121 0.234023 0.233925 0.2338 0.233673 0.233589 0.233513 0.233435 0.233358 0.233281 0.233226 0.233223 0.233224 0.233224 0.233224 0.233227 0.23325 0.233316 0.233389 0.23346 0.233531 0.233604 0.233683 0.233819 0.233962 0.234107 0.234251 0.234396 0.234547 0.234753 0.234975 0.235199 0.235418 0.235645 0.235884 0.23619 0.236507 0.236821 0.237137 0.237464 0.23787 0.238302 0.23874 0.239179 0.239668 0.240257 0.240866 0.24147 0.242224 0.243118 0.244017 0.245312 0.247061 0.252808 0.253748 0.253741 0.253748 0.253742 0.253748 0.253721 0.253755 0.253728 0.253753 0.253752 0.253735 0.253745 0.253755 0.253755 0.253769 0.253745 0.253749 0.253741 0.253753 0.253755 0.25374 0.25376 0.253743 0.253759 0.253753 0.253739 0.253749 0.253738 0.25375 0.253745 0.253748 0.25374 0.253749 0.253761 0.253747 0.253745 0.253737 0.253736 0.253756 0.253748 0.25375 0.253748 0.25375 0.253734 0.253743 0.253738 0.253726 0.253746 0.253744 0.253752 0.253753 0.253737 0.253749 0.25374 0.253761 0.253748 0.253738 0.253744 0.253752 0.253745 0.253754 0.25374 0.253756 0.253759 0.253755 0.253739 0.253732 0.253748 0.253726 0.253738 0.253729 0.253739 0.253757 0.253766 0.253741 0.253739 0.253746 0.253736 0.253728 0.253734 0.253741 0.253742 0.253752 0.253737 0.253741 0.253731 0.253753 0.253741 0.253749 0.253738 0.253755 0.253759 0.253731 0.253758 0.253745 0.25377 0.253757 0.253757 0.25374 0.253748 0.253739 0.253763 0.253752 0.25374 0.253752 0.253746 0.25375 0.253733 0.253739 0.253744 0.253754 0.253762 0.253758 0.253743 0.253738 0.253767 0.253751 0.253754 0.253744 0.253756 0.253744 0.253761 0.253731 0.253724 0.253758 0.253737 0.253763 0.253745 0.253747 0.253744 0.253737 0.253722 0.253719 0.253165 0.252256 0.251223 0.250414 0.249999 0.249614 0.249226 0.248839 0.248452 0.248066 0.24774 0.24744 0.247141 0.246847 0.246552 0.246256 0.245958 0.245668 0.245404 0.245182 0.244957 0.244739 0.244516 0.244297 0.244075 0.243854 0.243638 0.243447 0.24329 0.243137 0.242982 0.242829 0.242684 0.242543 0.242402 0.242268 0.242143 0.242061 0.241981 0.241906 0.241833 0.241757 0.24169 0.241615 0.241547 0.241481 0.241421 0.241395 0.241365 0.241341 0.241315 0.241288 0.241257 0.241234 0.241211 0.241183 0.241178 0.241196 0.241211 0.241229 0.241248 0.241268 0.241285 0.241302 0.241326 0.241346 0.241401 0.241471 0.241534 0.241596 0.241657 0.241729 0.2418 0.241864 0.241943 0.242048 0.242185 0.242323 0.242469 0.242619 0.242769 0.242932 0.243094 0.243293 0.243546 0.243806 0.244069 0.244329 0.244594 0.244853 0.245123 0.245491 0.245879 0.246261 0.246657 0.247041 0.247434 0.247939 0.248499 0.249083 0.249643 0.250293 0.251773 0.253245 0.253753 0.25374 0.253736 0.253728 0.253745 0.253728 0.253727 0.253758 0.253754 0.253745 0.253766 0.253751 0.253767 0.253755 0.253752 0.253744 0.253752 0.253742 0.253765 0.253755 0.253752 0.253739 0.253758 0.253744 0.25375 0.253754 0.253734 0.253744 0.253748 0.253768 0.253742 0.253743 0.253757 0.253732 0.253741 0.253765 0.25375 0.253754 0.253743 0.253709 0.253743 0.253755 0.253759 0.25374 0.253748 0.253761 0.253746 0.253754 0.253738 0.25375 0.253738 0.253743 0.253747 0.253762 0.253741 0.253763 0.253765 0.253736 0.253766 0.253759 0.25374 0.253765 0.25375 0.253752 0.253728 0.253755 0.253751 0.253749 0.253752 0.253752 0.253757 0.253744 0.253729 0.253764 0.253739 0.25375 0.253748 0.253749 0.253738 0.253724 0.253733 0.253737 0.253747 0.253742 0.253762 0.253737 0.25375 0.253735 0.253733 0.253763 0.253751 0.253725 0.253749 0.253752 0.25373 0.253756 0.253743 0.253752 0.253745 0.253761 0.253748 0.253738 0.253747 0.25376 0.253745 0.253744 0.253741 0.253748 0.253754 0.253757 0.25374 0.25375 0.253747 0.253737 0.253739 0.253723 0.253737 0.253748 0.253749 0.253747 0.253755 0.253753 0.253738 0.253744 0.253733 0.253727 0.253737 0.253755 0.253753 0.253756 0.253749 0.253729 0.253753 0.253751 0.253742 0.253751 0.253741 0.253739 0.253765 0.253743 0.253742 0.253754 0.253731 0.253747 0.253753 0.253759 0.253745 0.253744 0.253757 0.253741 0.253729 0.25375 0.253727 0.25374 0.253753
0.252207 0.252189 0.252184 0.252189 0.252173 0.252173 0.252169 0.252176 0.252182 0.252206 0.252198 0.252184 0.252192 0.252181 0.252188 0.252186 0.252203 0.252194 0.252168 0.25219 0.252179 0.252179 0.252178 0.252171 0.252194 0.252189 0.252188 0.252201 0.252178 0.252194 0.252177 0.252201 0.252178 0.252172 0.252186 0.252194 0.252181 0.252181 0.252177 0.252168 0.252178 0.252178 0.252183 0.252194 0.25219 0.252188 0.252184 0.25216 0.252193 0.252177 0.252193 0.252199 0.252199 0.252181 0.252188 0.252153 0.252178 0.252189 0.252209 0.25219 0.252175 0.252189 0.25217 0.252169 0.252184 0.252204 0.252191 0.252213 0.252191 0.252189 0.252168 0.252183 0.252174 0.252175 0.252193 0.25217 0.252188 0.252189 0.252175 0.252181 0.252174 0.252166 0.252191 0.252208 0.252181 0.2522 0.252168 0.252181 0.252178 0.252173 0.252208 0.25217 0.252188 0.252182 0.252169 0.252198 0.252186 0.252175 0.252185 0.252176 0.252182 0.252179 0.252193 0.252184 0.252183 0.252173 0.252209 0.252198 0.252188 0.252202 0.252197 0.252187 0.252165 0.252191 0.252167 0.252199 0.252181 0.252187 0.252187 0.252189 0.252198 0.252178 0.252187 0.252195 0.252167 0.252184 0.25219 0.252171 0.252172 0.25218 0.252189 0.252189 0.2522 0.252195 0.25218 0.252181 0.252181 0.252189 0.252183 0.252192 0.252205 0.25219 0.252177 0.252185 0.252183 0.252181 0.252177 0.252179 0.252195 0.252184 0.252179 0.252179 0.252168 0.252198 0.252189 0.252186 0.252207 0.252193 0.252168 0.252207 0.252183 0.252169 0.252194 0.252163 0.252179 0.252193 0.252174 0.252204 0.252196 0.246125 0.232237 0.227356 0.227055 0.226972 0.227202 0.22749 0.227781 0.228075 0.228467 0.228956 0.229448 0.22994 0.230427 0.230874 0.231301 0.231725 0.232126 0.232519 0.232902 0.233267 0.233627 0.233979 0.23416 0.234163 0.234087 0.23399 0.233892 0.233789 0.233673 0.233589 0.233513 0.233435 0.233359 0.233281 0.233226 0.233223 0.233224 0.233224 0.233224 0.233227 0.233251 0.233316 0.233388 0.23346 0.233531 0.233605 0.233683 0.233819 0.233963 0.234106 0.234253 0.234396 0.234547 0.234751 0.234973 0.235205 0.235421 0.235644 0.235884 0.236193 0.236502 0.236823 0.237139 0.237462 0.237872 0.238303 0.238745 0.239175 0.239665 0.240266 0.240862 0.241468 0.242238 0.24311 0.244018 0.24531 0.247079 0.251574 0.252175 0.252174 0.252172 0.252182 0.252173 0.252181 0.252183 0.252182 0.252205 0.252185 0.252188 0.252186 0.252198 0.252177 0.252183 0.252182 0.252181 0.252191 0.252198 0.25218 0.252188 0.252189 0.252186 0.252186 0.252175 0.25218 0.252176 0.252191 0.252193 0.252176 0.252172 0.252188 0.252189 0.252179 0.252197 0.252179 0.252195 0.252189 0.252192 0.252186 0.252194 0.252194 0.252179 0.252183 0.252176 0.252175 0.252188 0.252188 0.252189 0.252186 0.252188 0.25219 0.252176 0.252204 0.252194 0.252174 0.252174 0.252186 0.252178 0.252192 0.252173 0.2522 0.252186 0.25219 0.252176 0.252189 0.25218 0.252186 0.252198 0.252178 0.252189 0.252192 0.252179 0.252187 0.252176 0.252183 0.252185 0.252183 0.252186 0.252197 0.252192 0.252201 0.252201 0.252193 0.252182 0.252176 0.252178 0.252188 0.252195 0.252162 0.252187 0.252185 0.252194 0.252181 0.252183 0.252201 0.252183 0.252169 0.252196 0.252184 0.252192 0.252191 0.25217 0.252186 0.252193 0.252192 0.252175 0.252179 0.252196 0.252186 0.252178 0.252176 0.252182 0.252179 0.252183 0.252182 0.252183 0.2522 0.252191 0.252171 0.252191 0.252178 0.252196 0.252169 0.252162 0.252182 0.252182 0.252188 0.252183 0.252188 0.252184 0.252181 0.252182 0.252174 0.252201 0.252173 0.251994 0.251358 0.250591 0.249862 0.24911 0.248637 0.248251 0.247909 0.247608 0.247311 0.247016 0.246716 0.246423 0.246124 0.245831 0.245563 0.245337 0.245113 0.244893 0.244673 0.244449 0.244231 0.24401 0.243788 0.243596 0.24344 0.243282 0.243128 0.242972 0.242818 0.242664 0.242509 0.242353 0.242206 0.2421 0.242006 0.241911 0.241817 0.241721 0.241628 0.241534 0.241442 0.241349 0.241272 0.241236 0.241203 0.241168 0.241136 0.241102 0.24107 0.241038 0.241006 0.240973 0.240961 0.240984 0.241007 0.241029 0.241051 0.241074 0.241096 0.241119 0.241142 0.241167 0.241237 0.241322 0.241409 0.241498 0.241588 0.241678 0.24177 0.241857 0.241954 0.2421 0.242265 0.242432 0.242597 0.242764 0.24293 0.243098 0.243267 0.243478 0.243742 0.243995 0.244261 0.244521 0.244784 0.245047 0.245334 0.24571 0.2461 0.246489 0.246872 0.24726 0.247674 0.248222 0.248855 0.249952 0.251082 0.251942 0.252179 0.252181 0.252193 0.252199 0.252188 0.252192 0.252176 0.252184 0.252177 0.252186 0.252182 0.252174 0.252188 0.2522 0.25219 0.252183 0.252195 0.252197 0.25217 0.252194 0.252182 0.252186 0.25219 0.252187 0.252197 0.252194 0.252171 0.252198 0.252183 0.252185 0.252187 0.252179 0.252172 0.252176 0.252183 0.252164 0.252186 0.252175 0.252185 0.252198 0.252193 0.252194 0.252173 0.252173 0.252184 0.252183 0.252195 0.252179 0.252193 0.252187 0.252194 0.252189 0.252176 0.252183 0.252196 0.252198 0.252172 0.252182 0.252194 0.252183 0.252189 0.252191 0.252182 0.252189 0.252176 0.252187 0.252195 0.252176 0.252185 0.252187 0.252183 0.252201 0.252191 0.252193 0.252196 0.252207 0.252179 0.252189 0.252181 0.252186 0.252184 0.252175 0.252195 0.252192 0.2522 0.252195 0.252168 0.252188 0.252173 0.252196 0.252203 0.252171 0.252176 0.252174 0.252182 0.252183 0.252189 0.25218 0.252179 0.252187 0.252173 0.252192 0.252181 0.252202 0.252183 0.252182 0.252188 0.252176 0.252186 0.252187 0.252187 0.252205 0.25217 0.252184 0.252197 0.25217 0.252167 0.252195 0.252181 0.252186 0.252206 0.252185 0.252195 0.252177 0.252178 0.252192 0.25218 0.252172 0.25218 0.252185 0.252191 0.252189 0.252191 0.252194 0.252184 0.252199 0.252205 0.252203 0.252188 0.252162 0.252177 0.252185 0.252195 0.252177 0.252197 0.252199 0.252185 0.252178 0.252161 0.252183 0.25219 0.252195 0.252182 0.252194 0.252182 0.252174 0.25219
0.250635 0.250633 0.250645 0.25064 0.25064 0.250637 0.250661 0.250644 0.250648 0.250647 0.250633 0.250642 0.250645 0.250642 0.250657 0.250654 0.250639 0.250666 0.25065 0.250642 0.250652 0.250652 0.250633 0.250633 0.250639 0.250657 0.250631 0.250628 0.250662 0.250648 0.250655 0.250631 0.250631 0.250637 0.250645 0.25066 0.250642 0.25065 0.250656 0.250635 0.25065 0.250639 0.250632 0.250649 0.250641 0.250648 0.250659 0.250657 0.250639 0.250642 0.250635 0.250648 0.25065 0.250627 0.25064 0.250646 0.250637 0.250644 0.250657 0.250641 0.250643 0.25066 0.250652 0.250661 0.250636 0.250632 0.250654 0.250654 0.250648 0.250652 0.250639 0.250625 0.250641 0.250652 0.250636 0.250647 0.250624 0.250633 0.250639 0.250615 0.25064 0.250655 0.250642 0.250637 0.250628 0.250629 0.250665 0.250657 0.250636 0.250631 0.25063 0.250633 0.250654 0.250638 0.250646 0.250639 0.250633 0.25064 0.250637 0.250649 0.250639 0.250643 0.250663 0.25062 0.250654 0.25064 0.250635 0.250654 0.250639 0.250641 0.250648 0.250632 0.250645 0.25066 0.250653 0.250645 0.250646 0.250632 0.25064 0.250649 0.250652 0.25064 0.250626 0.250657 0.250635 0.250636 0.250655 0.250636 0.250649 0.250639 0.250647 0.250663 0.250635 0.250646 0.250636 0.25065 0.250645 0.25064 0.250638 0.250642 0.250648 0.25064 0.250628 0.250649 0.250636 0.250635 0.250645 0.250659 0.250646 0.250645 0.250648 0.250649 0.250638 0.250653 0.250652 0.250629 0.25064 0.250645 0.250651 0.250648 0.250658 0.250645 0.250642 0.250641 0.250625 0.250641 0.250628 0.250648 0.250641 0.250645 0.250623 0.243683 0.232361 0.228021 0.227794 0.227802 0.228052 0.228348 0.228647 0.228985 0.22935 0.229738 0.230161 0.230585 0.231008 0.231424 0.231831 0.232231 0.232624 0.233019 0.233462 0.233934 0.234132 0.234143 0.234072 0.233966 0.233867 0.233767 0.233671 0.233589 0.233513 0.233435 0.233359 0.23328 0.233226 0.233223 0.233224 0.233224 0.233224 0.233227 0.233251 0.233315 0.233388 0.23346 0.233531 0.233604 0.233681 0.233821 0.233962 0.234105 0.23425 0.234395 0.234546 0.234754 0.234977 0.235198 0.235419 0.235646 0.235886 0.236192 0.236507 0.236822 0.23714 0.237461 0.237872 0.238304 0.238739 0.239174 0.239667 0.240259 0.240863 0.241472 0.242238 0.243111 0.244009 0.245308 0.247035 0.250297 0.25065 0.250664 0.250644 0.250637 0.250643 0.250628 0.250658 0.250643 0.250633 0.25065 0.250655 0.250642 0.250636 0.250655 0.250659 0.250643 0.250633 0.250648 0.25064 0.250637 0.250647 0.25063 0.250646 0.250652 0.250621 0.250641 0.250656 0.250652 0.250646 0.250652 0.25063 0.250646 0.250643 0.250631 0.250658 0.25062 0.250655 0.250654 0.250631 0.250639 0.250652 0.250645 0.250631 0.250632 0.250654 0.250644 0.250642 0.250642 0.250632 0.250642 0.250648 0.250632 0.250628 0.250665 0.250656 0.250661 0.250619 0.250636 0.25065 0.250647 0.250643 0.250651 0.250632 0.250629 0.250641 0.25064 0.250653 0.250649 0.250622 0.250642 0.250626 0.250643 0.250662 0.250648 0.25064 0.250641 0.250649 0.250633 0.25064 0.250653 0.250638 0.250644 0.250628 0.25065 0.250647 0.250637 0.250661 0.250644 0.250625 0.250657 0.250643 0.250658 0.250647 0.25062 0.250642 0.250647 0.250657 0.250637 0.250646 0.250632 0.250648 0.250635 0.250634 0.250642 0.250635 0.250642 0.250657 0.250623 0.250634 0.25065 0.250639 0.250643 0.250639 0.250628 0.250639 0.250645 0.250639 0.250662 0.250658 0.250639 0.25064 0.25065 0.250638 0.25064 0.250646 0.250642 0.250645 0.250637 0.250639 0.250633 0.250628 0.250665 0.250638 0.250643 0.250649 0.250633 0.25065 0.250649 0.250648 0.250643 0.250563 0.25008 0.249422 0.248732 0.248048 0.247505 0.247179 0.246881 0.246588 0.246296 0.245994 0.245717 0.245493 0.245272 0.245046 0.244825 0.244604 0.244387 0.244161 0.243944 0.243743 0.243587 0.243432 0.243276 0.243117 0.242967 0.242812 0.242655 0.242502 0.24235 0.242246 0.242149 0.242055 0.241961 0.241866 0.241773 0.241677 0.241582 0.241488 0.241409 0.241371 0.241333 0.241298 0.241261 0.241227 0.241193 0.241157 0.241119 0.241084 0.241077 0.241098 0.241123 0.241148 0.241173 0.2412 0.241223 0.241248 0.241272 0.241303 0.241381 0.241472 0.241562 0.241653 0.241744 0.241838 0.241927 0.242016 0.242115 0.242265 0.242433 0.242602 0.242767 0.242933 0.243101 0.243269 0.243439 0.243668 0.243926 0.244188 0.244456 0.244718 0.244981 0.245239 0.245551 0.245934 0.246326 0.246709 0.247098 0.247708 0.248675 0.249731 0.250515 0.25065 0.250632 0.250639 0.250649 0.250639 0.250623 0.250648 0.250661 0.250637 0.250644 0.250656 0.250637 0.250637 0.250644 0.25063 0.250629 0.250651 0.250647 0.250646 0.250644 0.250642 0.250639 0.250631 0.250638 0.250634 0.25065 0.250648 0.250639 0.250631 0.250632 0.250642 0.250648 0.250637 0.250652 0.250648 0.250652 0.250654 0.250636 0.250636 0.250627 0.250622 0.25064 0.250647 0.250641 0.250647 0.250633 0.250619 0.25065 0.250632 0.250645 0.250646 0.250643 0.250647 0.250633 0.250639 0.250635 0.250651 0.250662 0.250642 0.250657 0.250651 0.250647 0.250655 0.250634 0.250637 0.250634 0.250644 0.250643 0.250655 0.250645 0.25065 0.250644 0.250652 0.25065 0.250623 0.250651 0.250631 0.250632 0.250631 0.250648 0.250641 0.250647 0.250637 0.250634 0.250649 0.250648 0.250632 0.250645 0.250655 0.250643 0.25065 0.250627 0.250641 0.250633 0.250656 0.250628 0.250641 0.250628 0.250644 0.250623 0.250642 0.250648 0.250651 0.25064 0.250629 0.250645 0.250644 0.250639 0.250644 0.250643 0.25064 0.250646 0.250623 0.250644 0.250651 0.250655 0.250636 0.250645 0.250654 0.250644 0.250647 0.250653 0.250632 0.250659 0.250649 0.25064 0.25063 0.250645 0.250666 0.250634 0.250654 0.250644 0.250641 0.250649 0.250661 0.25063 0.250636 0.250664 0.25063 0.250663 0.250648 0.250636 0.250664 0.250651 0.250631 0.250656 0.250634 0.250642 0.250635 0.250641 0.250635 0.250641 0.250657 0.250629 0.250636 0.250654 0.250632 0.25065 0.250653 0.25065
0.24913 0.24913 0.249111 0.249123 0.249102 0.249121 0.249099 0.249109 0.249126 0.249123 0.249128 0.249132 0.24911 0.249122 0.249129 0.249121 0.249114 0.249132 0.249113 0.249124 0.249121 0.249125 0.24912 0.24912 0.249119 0.249122 0.249123 0.249117 0.249103 0.249135 0.249101 0.249114 0.24911 0.249091 0.249126 0.249125 0.249116 0.249131 0.249121 0.249114 0.249125 0.249111 0.249128 0.249125 0.249123 0.249143 0.249117 0.249116 0.249112 0.249123 0.249111 0.249136 0.249112 0.249136 0.249111 0.249111 0.249111 0.249102 0.249112 0.249136 0.249118 0.249112 0.249129 0.249105 0.249123 0.249122 0.24912 0.249102 0.249129 0.249116 0.249115 0.249118 0.249115 0.249115 0.249123 0.249112 0.249122 0.24911 0.249123 0.249128 0.249113 0.249112 0.249118 0.249113 0.249103 0.249117 0.249127 0.249121 0.249116 0.249103 0.249118 0.249132 0.249129 0.249124 0.24912 0.249105 0.249116 0.249112 0.24913 0.249114 0.249122 0.249128 0.249129 0.249112 0.24913 0.249118 0.249126 0.249116 0.24912 0.249122 0.249123 0.249116 0.249116 0.249109 0.249132 0.24912 0.249124 0.249118 0.249133 0.249127 0.249112 0.249116 0.249117 0.249128 0.249124 0.249088 0.249116 0.249106 0.249105 0.249127 0.249138 0.24912 0.249118 0.249126 0.249131 0.249111 0.249128 0.249125 0.249123 0.24911 0.249113 0.249123 0.249117 0.249148 0.249115 0.249108 0.24912 0.24911 0.249123 0.249119 0.249124 0.24912 0.249128 0.249106 0.249108 0.249118 0.249105 0.249122 0.249124 0.249111 0.249122 0.249115 0.249114 0.249109 0.249119 0.249133 0.249129 0.249097 0.249124 0.249119 0.249131 0.249123 0.24903 0.242166 0.234583 0.229893 0.228728 0.228739 0.228968 0.229311 0.229654 0.230014 0.230372 0.230749 0.231138 0.231523 0.231913 0.232292 0.232743 0.233271 0.233772 0.234182 0.234226 0.23422 0.234108 0.233973 0.233865 0.233766 0.233669 0.233589 0.233514 0.233435 0.233359 0.233281 0.233226 0.233223 0.233224 0.233224 0.233224 0.233226 0.233251 0.233316 0.233389 0.233459 0.233531 0.233603 0.233683 0.233817 0.233962 0.234107 0.234252 0.234395 0.234546 0.234751 0.234975 0.235197 0.235422 0.235645 0.235885 0.23619 0.236507 0.236821 0.23714 0.237466 0.23787 0.238308 0.238738 0.239181 0.239666 0.240265 0.240862 0.241467 0.242225 0.243106 0.244014 0.245326 0.247058 0.249045 0.249119 0.249121 0.249114 0.249114 0.249124 0.249118 0.249143 0.249121 0.249126 0.249138 0.249118 0.24911 0.249122 0.249109 0.249111 0.24911 0.249112 0.24912 0.249113 0.249113 0.249114 0.249108 0.249135 0.249109 0.249113 0.249133 0.249105 0.249123 0.249126 0.249123 0.249113 0.249129 0.249115 0.249134 0.249127 0.249126 0.249121 0.249122 0.249119 0.249122 0.249116 0.249122 0.249126 0.249124 0.249118 0.249126 0.249127 0.249115 0.249113 0.249108 0.249115 0.249106 0.249093 0.249139 0.24912 0.249127 0.24913 0.249116 0.249118 0.249122 0.249128 0.249112 0.249112 0.249107 0.249121 0.249117 0.249097 0.249127 0.249106 0.249115 0.249139 0.249108 0.249118 0.249126 0.249122 0.249115 0.249106 0.249118 0.249105 0.249123 0.249125 0.249126 0.249118 0.249116 0.24913 0.249103 0.249118 0.24912 0.249142 0.249144 0.249116 0.249113 0.249128 0.249115 0.249128 0.249124 0.249119 0.249125 0.249112 0.249097 0.249125 0.249124 0.249123 0.249107 0.249124 0.249125 0.249118 0.249092 0.249103 0.249104 0.249134 0.249134 0.249122 0.249111 0.249122 0.24913 0.249106 0.249112 0.249104 0.249126 0.249127 0.24912 0.249116 0.249117 0.249128 0.249125 0.24911 0.249107 0.249121 0.249114 0.249124 0.249128 0.249133 0.249129 0.249131 0.249103 0.249125 0.249113 0.249106 0.249109 0.249128 0.249141 0.249122 0.249104 0.249086 0.248915 0.248511 0.248038 0.247464 0.246891 0.246285 0.245881 0.245647 0.245426 0.245203 0.244982 0.244759 0.244536 0.244318 0.244094 0.243896 0.243736 0.24358 0.243425 0.243267 0.243113 0.242957 0.242799 0.242648 0.242497 0.24239 0.242294 0.2422 0.242106 0.242011 0.241916 0.24182 0.241727 0.241634 0.241557 0.241514 0.24148 0.241443 0.241408 0.241371 0.241335 0.2413 0.241264 0.241231 0.241223 0.241247 0.241272 0.241297 0.241322 0.241348 0.241373 0.241399 0.241422 0.241456 0.241539 0.241628 0.241718 0.241811 0.241901 0.241992 0.242084 0.242174 0.242277 0.24244 0.242608 0.242769 0.242936 0.243104 0.243274 0.243442 0.243617 0.24386 0.244122 0.244379 0.244644 0.244906 0.245165 0.245434 0.245804 0.246583 0.247431 0.248184 0.248793 0.249131 0.24913 0.249118 0.249119 0.249107 0.249114 0.249126 0.249108 0.249114 0.24912 0.249127 0.249113 0.24912 0.24913 0.249104 0.249121 0.24913 0.249127 0.249116 0.249115 0.249107 0.24913 0.249122 0.249102 0.249125 0.249114 0.249118 0.249119 0.249101 0.249105 0.249129 0.249106 0.249109 0.249108 0.249115 0.2491 0.249115 0.249136 0.249108 0.249135 0.249129 0.249129 0.249108 0.24912 0.24911 0.249123 0.249135 0.249106 0.24911 0.24911 0.24913 0.249123 0.249124 0.249103 0.249115 0.249119 0.249134 0.249118 0.249123 0.249127 0.249128 0.249117 0.249124 0.249115 0.249121 0.249133 0.249112 0.249122 0.249103 0.249114 0.249117 0.249112 0.249123 0.24912 0.249119 0.249111 0.249122 0.24913 0.249111 0.249104 0.249111 0.249121 0.249118 0.249118 0.249133 0.249118 0.249099 0.249127 0.249117 0.24912 0.249126 0.249117 0.249136 0.249129 0.249128 0.249125 0.249128 0.24912 0.249121 0.249118 0.249117 0.249133 0.249109 0.249146 0.249137 0.249126 0.249119 0.249123 0.249114 0.249122 0.249126 0.249121 0.249117 0.249121 0.249117 0.249116 0.249107 0.249106 0.249116 0.249131 0.249127 0.249107 0.249127 0.249112 0.249103 0.249107 0.249139 0.249128 0.249122 0.249116 0.249118 0.249099 0.249103 0.249099 0.249129 0.249118 0.249122 0.249118 0.249117 0.249116 0.249113 0.249102 0.249128 0.249124 0.249104 0.249118 0.249118 0.249099 0.249121 0.249127 0.249119 0.249122 0.249108 0.249128 0.249121 0.249107 0.249125 0.249114 0.249102 0.249118 0.24912 0.249115 0.249109 0.249126
