0.256621 0.256446 0.256266 0.256074 0.255861 0.255675 0.255483 0.255328 0.255193 0.25502 0.254741 0.254645 0.254456 0.254244 0.254074 0.253922 0.253747 0.253552 0.253411 0.253235 0.253067 0.252872 0.252675 0.252517 0.252304 0.252171 0.251969 0.251823 0.251637 0.251465 0.251312 0.251139 0.250989 0.250836 0.250646 0.250452 0.250299 0.250142 0.249977 0.2498 0.249678 0.24946 0.249289 0.249125 0.248971 0.248832 0.248661 0.248501 0.248344 0.24816 0.247963 0.247828 0.247706 0.24757 0.247392 0.24722 0.247071 0.246922 0.246743 0.246606 0.246393 0.246271 0.246115 0.245965 0.245819 0.245651 0.245531 0.245374 0.24523 0.245022 0.244888 0.244741 0.244589 0.244445 0.244312 0.244148 0.243985 0.243882 0.243701 0.243592 0.243426 0.243278 0.243128 0.243007 0.242867 0.242705 0.242558 0.242411 0.242293 0.242137 0.241986 0.241865 0.241726 0.241584 0.241435 0.241299 0.241155 0.241009 0.240878 0.240771 0.240632 0.240487 0.24036 0.240226 0.240078 0.239964 0.239833 0.239747 0.239556 0.239438 0.239332 0.239154 0.239076 0.238922 0.238772 0.238682 0.238523 0.238402 0.238294 0.238152 0.238035 0.237924 0.237786 0.237665 0.237553 0.237425 0.237313 0.237216 0.237063 0.236949 0.236838 0.236721 0.236587 0.236465 0.236384 0.236264 0.236161 0.236018 0.235879 0.235815 0.235696 0.235573 0.235459 0.235354 0.235219 0.235099 0.235004 0.234907 0.23481 0.234727 0.234609 0.234472 0.234387 0.234261 0.234174 0.234065 0.233965 0.233847 0.233728 0.233653 0.233547 0.233431 0.233347 0.233268 0.233153 0.233051 0.23296 0.232848 0.232787 0.232668 0.232579 0.232498 0.232366 0.232296 0.232181 0.232103 0.232036 0.231933 0.231823 0.231787 0.23164 0.231546 0.231471 0.231358 0.231275 0.231222 0.23112 0.231086 0.231002 0.230874 0.230766 0.230687 0.230634 0.230546 0.230495 0.230366 0.230329 0.230232 0.23018 0.230092 0.229986 0.229934 0.229811 0.229768 0.229643 0.229625 0.229554 0.229465 0.229398 0.229351 0.229279 0.229187 0.229135 0.229054 0.228971 0.228951 0.228876 0.228797 0.228679 0.22865 0.228605 0.228529 0.228461 0.228392 0.228343 0.228276 0.228195 0.228144 0.228121 0.228055 0.227992 0.227929 0.227838 0.227783 0.227763 0.22768 0.227645 0.227601 0.227536 0.227501 0.227457 0.227395 0.227313 0.227272 0.227238 0.227185 0.227148 0.227067 0.227038 0.226996 0.226956 0.226932 0.226924 0.226783 0.226755 0.226746 0.226695 0.226644 0.226613 0.226568 0.226533 0.226468 0.226471 0.226434 0.22635 0.226335 0.226291 0.226258 0.226247 0.226211 0.226196 0.226125 0.226103 0.22606 0.22604 0.226018 0.226009 0.225957 0.22597 0.225894 0.225882 0.225847 0.225813 0.225786 0.225785 0.225765 0.225749 0.225713 0.225693 0.225661 0.225654 0.225659 0.225615 0.225603 0.22558 0.225589 0.225533 0.22557 0.225526 0.225515 0.225471 0.225507 0.225444 0.225487 0.225446 0.225431 0.225444 0.225422 0.225409 0.225378 0.225395 0.225377 0.2254 0.225349 0.225374 0.225374 0.225384 0.225387 0.225364 0.225392 0.22537 0.225395 0.225378 0.225375 0.225349 0.225375 0.225426 0.225387 0.22537 0.225414 0.225384 0.225412 0.225396 0.225429 0.225446 0.22543 0.225474 0.225499 0.225501 0.225509 0.225511 0.225538 0.22553 0.22553 0.225564 0.225613 0.225589 0.225644 0.225626 0.22568 0.225684 0.225679 0.225709 0.225735 0.22576 0.225777 0.225789 0.225849 0.225835 0.225895 0.225915 0.22593 0.225995 0.226 0.22603 0.226037 0.226121 0.226124 0.226137 0.226138 0.226181 0.226224 0.226267 0.226317 0.226323 0.2264 0.226453 0.226479 0.226495 0.226538 0.226588 0.226604 0.226634 0.226716 0.226725 0.226751 0.226823 0.226878 0.226899 0.226943 0.226999 0.227005 0.227085 0.227121 0.227179 0.227263 0.227249 0.227317 0.227378 0.227455 0.227485 0.227526 0.227593 0.227649 0.227682 0.227791 0.227779 0.227856 0.227924 0.227975 0.228042 0.228107 0.228162 0.228197 0.22829 0.228325 0.228413 0.228444 0.228518 0.228602 0.228648 0.228719 0.22877 0.228862 0.228916 0.22899 0.229062 0.229139 0.229227 0.229278 0.22932 0.229396 0.229466 0.229529 0.22964 0.229698 0.229764 0.229858 0.229906 0.230001 0.2301 0.230131 0.230263 0.230311 0.230369 0.230491 0.230572 0.230603 0.230716 0.230781 0.23088 0.23095 0.231051 0.231162 0.231207 0.231337 0.231397 0.231468 0.231591 0.231674 0.231738 0.231828 0.231931 0.231988 0.232089 0.232193 0.232269 0.232395 0.232513 0.232557 0.232669 0.232756 0.23284 0.232962 0.233052 0.233167 0.233229 0.233322 0.233472 0.233557 0.233612 0.233742 0.233855 0.233979 0.234066 0.234159 0.234307 0.234376 0.234505 0.234572 0.234713 0.234798 0.23493 0.235029 0.235144 0.235234 0.235359 0.235443 0.235556 0.235695 0.235808 0.235936 0.236029 0.236094 0.236203 0.236384 0.236482 0.236606 0.23671 0.236854 0.236925 0.237092 0.237203 0.237338 0.237433 0.237541 0.237656 0.237808 0.237916 0.238068 0.238183 0.238257 0.238413 0.238555 0.238673 0.238778 0.23894 0.239025 0.239176 0.239297 0.239454 0.23956 0.239717 0.239832 0.239934 0.240094 0.240165 0.24037 0.240504 0.240624 0.240758 0.24088 0.24107 0.241183 0.241278 0.241426 0.241607 0.241724 0.241869 0.241998 0.242141 0.242278 0.242459 0.242569 0.242725 0.24283 0.242971 0.243137 0.243309 0.243428 0.243579 0.243694 0.243841 0.243993 0.244168 0.244365 0.244452 0.244655 0.24475 0.244887 0.24506 0.245194 0.245352 0.24548 0.245692 0.245806 0.245975 0.246176 0.246283 0.246443 0.246591 0.246732 0.246904 0.247079 0.247193 0.247396 0.247527 0.247657 0.247831 0.247976 0.248158 0.248317 0.248487 0.24865 0.248824 0.248977 0.249122 0.24931 0.249495 0.249631 0.249808 0.250019 0.250104 0.250306 0.250449 0.250601 0.250833 0.250952 0.251138 0.251311 0.251478 0.251671 0.251847 0.252007 0.252135 0.252338 0.252496 0.252705 0.252866 0.253085 0.253223 0.253358 0.2536 0.253711 0.253929 0.254066 0.254227 0.254424 0.254604 0.254799 0.254989 0.255163 0.255292 0.255535 0.255709 0.255879 0.256077 0.256249 0.256434 0.256635
0.256252 0.256067 0.255886 0.255709 0.255522 0.255347 0.255155 0.254979 0.254802 0.254617 0.254444 0.25427 0.254089 0.253903 0.253736 0.25356 0.253374 0.253197 0.253021 0.252854 0.252676 0.252504 0.252327 0.252152 0.251978 0.25181 0.251641 0.251472 0.251299 0.251132 0.250966 0.250781 0.250613 0.250443 0.250278 0.250122 0.249949 0.249779 0.249615 0.249452 0.249283 0.249125 0.248958 0.248787 0.248635 0.248466 0.248307 0.24815 0.247976 0.247826 0.247664 0.247502 0.247346 0.24718 0.247021 0.246868 0.24671 0.246555 0.2464 0.246244 0.246085 0.24593 0.245775 0.245632 0.245474 0.245318 0.245169 0.245007 0.244855 0.244712 0.244562 0.244417 0.244262 0.244115 0.24397 0.243821 0.243669 0.243529 0.243378 0.243233 0.243087 0.24294 0.242804 0.242652 0.242519 0.242366 0.24223 0.242086 0.241948 0.24181 0.241663 0.241526 0.241385 0.241247 0.241116 0.240981 0.240835 0.240707 0.24057 0.240425 0.240295 0.240164 0.240029 0.239894 0.239759 0.239636 0.239501 0.23937 0.239236 0.239106 0.238981 0.238854 0.238724 0.2386 0.238471 0.238343 0.238212 0.23809 0.237965 0.23784 0.237725 0.237596 0.237476 0.237352 0.237232 0.23711 0.236986 0.236871 0.236747 0.23663 0.236511 0.2364 0.236279 0.236165 0.236043 0.235928 0.235819 0.235701 0.235588 0.235478 0.235365 0.235249 0.235138 0.235025 0.234921 0.234809 0.234706 0.234587 0.234489 0.234378 0.23427 0.234166 0.234058 0.233958 0.233849 0.233743 0.233643 0.233542 0.233446 0.233333 0.233237 0.233133 0.233036 0.232937 0.232841 0.232741 0.232643 0.23255 0.232455 0.232355 0.232259 0.232172 0.232077 0.231981 0.231884 0.231794 0.2317 0.231611 0.231522 0.231437 0.231348 0.231259 0.231169 0.231085 0.230992 0.230909 0.230826 0.230738 0.230656 0.230574 0.230487 0.230405 0.230327 0.230242 0.230164 0.230083 0.230004 0.229924 0.229847 0.229776 0.229696 0.229619 0.229546 0.229462 0.229391 0.229321 0.229245 0.229173 0.2291 0.229032 0.228959 0.228887 0.228817 0.228753 0.228685 0.228618 0.228548 0.228484 0.228416 0.228351 0.228289 0.228225 0.228158 0.228097 0.228037 0.227976 0.227917 0.227856 0.227795 0.227736 0.227677 0.22762 0.227565 0.227509 0.22745 0.227398 0.227344 0.22729 0.227239 0.227185 0.227135 0.227084 0.227031 0.226979 0.226932 0.226886 0.226837 0.226786 0.226742 0.226692 0.226649 0.226604 0.226558 0.226519 0.226476 0.226434 0.226393 0.226351 0.226311 0.22627 0.226234 0.226191 0.226153 0.226119 0.226084 0.226046 0.226013 0.225973 0.225942 0.225909 0.22588 0.225842 0.225816 0.225783 0.225751 0.225724 0.225691 0.225667 0.225645 0.225612 0.225584 0.225566 0.225538 0.225512 0.225487 0.225466 0.225443 0.22542 0.225405 0.225381 0.225361 0.225343 0.225325 0.22531 0.225291 0.225268 0.22526 0.225242 0.225224 0.225217 0.225199 0.225189 0.225182 0.225163 0.225161 0.225143 0.225135 0.225128 0.225121 0.225112 0.225112 0.225102 0.225099 0.225089 0.225083 0.225086 0.225082 0.225083 0.225079 0.225077 0.225079 0.225075 0.22508 0.225084 0.225082 0.225086 0.225096 0.225091 0.225101 0.225107 0.225115 0.225122 0.225124 0.225141 0.225148 0.22516 0.225166 0.225178 0.22519 0.2252 0.22521 0.225232 0.22524 0.225263 0.225273 0.225293 0.225305 0.225324 0.225345 0.225358 0.225384 0.225401 0.225419 0.225446 0.225464 0.22549 0.225512 0.225537 0.225562 0.225588 0.225611 0.225639 0.225666 0.225696 0.225722 0.225752 0.225783 0.225812 0.22584 0.225875 0.225909 0.225944 0.225978 0.226005 0.226047 0.226079 0.226118 0.226156 0.226189 0.226234 0.226271 0.226308 0.226349 0.226385 0.22643 0.226472 0.22652 0.22656 0.226605 0.22665 0.226696 0.226742 0.226786 0.226837 0.226882 0.226934 0.226982 0.227033 0.22708 0.227132 0.227181 0.227235 0.227288 0.227343 0.227397 0.227455 0.227505 0.227561 0.227623 0.227674 0.227738 0.227797 0.227854 0.227917 0.227973 0.228032 0.228097 0.22816 0.228225 0.228285 0.228351 0.228416 0.228486 0.228549 0.228612 0.228685 0.228749 0.22882 0.228888 0.228961 0.229035 0.229101 0.229172 0.22925 0.22932 0.229393 0.229467 0.229541 0.229614 0.229694 0.229772 0.229849 0.229921 0.229999 0.230084 0.230162 0.230241 0.230326 0.230402 0.230492 0.230572 0.230654 0.230739 0.230825 0.230912 0.230993 0.231079 0.231166 0.231254 0.231346 0.231432 0.231526 0.231618 0.231703 0.231798 0.231887 0.231984 0.23207 0.232169 0.232263 0.232355 0.232449 0.232547 0.232644 0.232741 0.232837 0.232942 0.23304 0.233137 0.233238 0.23334 0.233433 0.233545 0.233644 0.233748 0.233854 0.233959 0.234061 0.234169 0.234269 0.234377 0.234486 0.23459 0.234702 0.234806 0.234919 0.235034 0.235142 0.23525 0.235361 0.23548 0.235594 0.235701 0.235814 0.235932 0.236037 0.23616 0.236279 0.236394 0.236516 0.236635 0.23675 0.236869 0.236986 0.237111 0.237229 0.23735 0.23748 0.237597 0.237716 0.237845 0.237966 0.238093 0.238211 0.238344 0.238475 0.238591 0.238728 0.238846 0.238978 0.239112 0.239237 0.23937 0.239499 0.239632 0.239766 0.239894 0.240025 0.240161 0.240293 0.240435 0.240574 0.240703 0.240835 0.240975 0.241109 0.241255 0.241383 0.241527 0.241661 0.241805 0.241942 0.242085 0.24223 0.242377 0.242514 0.242655 0.242799 0.242938 0.243086 0.243227 0.243385 0.243526 0.243666 0.243823 0.243966 0.24412 0.244269 0.24441 0.244564 0.244708 0.244864 0.245011 0.245167 0.245313 0.245468 0.24562 0.245772 0.245937 0.246091 0.246241 0.246403 0.246552 0.246713 0.246869 0.247028 0.247181 0.247339 0.247496 0.247661 0.24782 0.247982 0.248148 0.248303 0.248469 0.248629 0.24879 0.248958 0.249117 0.249287 0.249445 0.249622 0.24978 0.249957 0.250115 0.250278 0.250458 0.250616 0.250791 0.250954 0.251129 0.251292 0.251463 0.251643 0.25181 0.251984 0.252162 0.252329 0.252506 0.252677 0.252851 0.253025 0.253199 0.253381 0.25356 0.253731 0.253913 0.254085 0.25426 0.254437 0.254615 0.254799 0.254982 0.255156 0.255346 0.255523 0.255703 0.255892 0.256064 0.256246
0.256371 0.256187 0.256 0.255823 0.255633 0.25546 0.255266 0.255091 0.254916 0.254736 0.254551 0.254373 0.254198 0.254025 0.253838 0.253666 0.253492 0.253311 0.253142 0.252965 0.252792 0.252616 0.252447 0.252267 0.252104 0.251925 0.251746 0.251577 0.251409 0.251241 0.251068 0.250904 0.250733 0.250562 0.250403 0.250232 0.250066 0.249898 0.249732 0.249565 0.249398 0.249235 0.249074 0.248908 0.248746 0.248585 0.248418 0.248256 0.248096 0.247942 0.247777 0.247612 0.24746 0.2473 0.24714 0.246987 0.246828 0.246669 0.246513 0.246357 0.246208 0.246046 0.245899 0.245746 0.245581 0.245429 0.245281 0.245129 0.244978 0.244828 0.244682 0.24453 0.244381 0.244232 0.244081 0.243935 0.24379 0.243639 0.243495 0.243349 0.243206 0.243058 0.242915 0.242773 0.24263 0.24249 0.242343 0.242202 0.242063 0.241923 0.241781 0.241653 0.241505 0.241368 0.241226 0.241088 0.240956 0.240828 0.240685 0.240554 0.240419 0.240281 0.240152 0.240014 0.239884 0.239748 0.239617 0.239493 0.239361 0.239222 0.239099 0.238969 0.238839 0.238714 0.238588 0.238458 0.238336 0.238206 0.238086 0.237957 0.237846 0.237718 0.237593 0.237474 0.23735 0.237231 0.237105 0.236987 0.236876 0.236748 0.236631 0.236515 0.236397 0.236287 0.23617 0.236052 0.23594 0.235827 0.23571 0.235598 0.235486 0.235374 0.235263 0.235147 0.235043 0.234931 0.234826 0.234719 0.234606 0.234498 0.234392 0.234286 0.234178 0.234081 0.233975 0.233869 0.233764 0.233668 0.233563 0.233458 0.233364 0.233258 0.233158 0.233061 0.232958 0.232864 0.232765 0.232675 0.23257 0.232482 0.232387 0.232295 0.232198 0.232101 0.232013 0.231916 0.231836 0.231739 0.231647 0.231557 0.231469 0.231377 0.231295 0.231203 0.231117 0.231032 0.230944 0.230865 0.230776 0.230698 0.230612 0.230531 0.230448 0.230368 0.230292 0.230211 0.23013 0.230047 0.22997 0.229894 0.229815 0.229739 0.229669 0.229587 0.229517 0.229446 0.229372 0.229293 0.229223 0.229151 0.229085 0.229015 0.228945 0.22888 0.228806 0.228741 0.228675 0.228604 0.228547 0.228483 0.228414 0.228345 0.228284 0.228222 0.228165 0.2281 0.22804 0.22798 0.227921 0.227857 0.227802 0.227746 0.22769 0.227635 0.227583 0.227523 0.227467 0.227413 0.227367 0.227311 0.227256 0.227204 0.227155 0.227104 0.227055 0.227009 0.22696 0.226915 0.226868 0.226824 0.226775 0.226727 0.226684 0.226643 0.226599 0.226557 0.226517 0.226475 0.226435 0.226399 0.226354 0.226322 0.226278 0.226247 0.226201 0.226171 0.226139 0.226099 0.226072 0.226035 0.226002 0.225968 0.225937 0.225909 0.225877 0.22585 0.225821 0.225797 0.225766 0.225741 0.225715 0.225687 0.225664 0.225638 0.225613 0.225596 0.225572 0.225549 0.225527 0.225512 0.225488 0.225469 0.225449 0.225434 0.225414 0.225401 0.225382 0.225366 0.225355 0.225342 0.225332 0.22532 0.225308 0.225295 0.225284 0.225273 0.225262 0.225259 0.22525 0.22524 0.225239 0.225224 0.225225 0.225221 0.225213 0.22521 0.22521 0.225203 0.225203 0.225207 0.225203 0.225203 0.225204 0.225208 0.22521 0.225215 0.225217 0.22522 0.225229 0.225231 0.22524 0.225248 0.225253 0.225264 0.225272 0.225285 0.225295 0.225304 0.225316 0.225327 0.225343 0.225353 0.225369 0.225382 0.2254 0.225418 0.225433 0.22545 0.225468 0.225487 0.225512 0.225525 0.225549 0.225567 0.225593 0.225611 0.225641 0.225663 0.22569 0.225713 0.225737 0.225765 0.225796 0.225817 0.225851 0.225871 0.225906 0.225943 0.22597 0.226004 0.226034 0.226066 0.226101 0.226137 0.226166 0.226207 0.226242 0.226281 0.226319 0.226357 0.226399 0.226433 0.226476 0.22652 0.22656 0.226602 0.226645 0.226692 0.226732 0.226775 0.226823 0.226865 0.226912 0.226959 0.227007 0.227056 0.227107 0.227157 0.227204 0.227258 0.227311 0.22736 0.227415 0.22747 0.227515 0.227578 0.227634 0.227685 0.227747 0.2278 0.227858 0.22792 0.227979 0.228043 0.228099 0.228159 0.228221 0.228286 0.228345 0.228413 0.228479 0.228542 0.228609 0.228678 0.228738 0.228806 0.228878 0.228948 0.229016 0.229079 0.229149 0.229229 0.229296 0.229367 0.229442 0.229512 0.229591 0.229665 0.229739 0.229824 0.229893 0.229973 0.230048 0.230125 0.230211 0.230286 0.230367 0.23045 0.230531 0.230616 0.230697 0.230782 0.230861 0.230948 0.231032 0.231118 0.231205 0.231292 0.231382 0.231465 0.231555 0.231647 0.231735 0.231818 0.231919 0.232012 0.232107 0.232193 0.232287 0.232381 0.232479 0.232572 0.232676 0.232771 0.232865 0.232967 0.233057 0.233158 0.233256 0.23336 0.23346 0.233566 0.233661 0.233771 0.233874 0.233971 0.234073 0.234182 0.234286 0.234394 0.234496 0.234608 0.234714 0.234819 0.234929 0.235042 0.235153 0.235259 0.235375 0.235481 0.235603 0.235706 0.235828 0.235936 0.236047 0.236165 0.236278 0.236399 0.236515 0.236637 0.23675 0.236867 0.236987 0.237109 0.237225 0.237346 0.237472 0.237597 0.237713 0.237832 0.237966 0.238089 0.238212 0.238337 0.238461 0.238587 0.238709 0.238839 0.238968 0.239101 0.239234 0.239355 0.239495 0.239619 0.239747 0.239884 0.240007 0.240147 0.240277 0.240421 0.240554 0.240682 0.240824 0.240956 0.241093 0.241228 0.24137 0.241504 0.241644 0.241779 0.241925 0.24206 0.242203 0.242346 0.242482 0.242632 0.242776 0.242915 0.243057 0.243199 0.24334 0.24349 0.243646 0.243795 0.243936 0.244087 0.24423 0.244374 0.244529 0.24468 0.244828 0.244976 0.245136 0.24528 0.24543 0.245589 0.245738 0.245897 0.246052 0.2462 0.246358 0.246512 0.246671 0.246823 0.246981 0.247143 0.247297 0.24746 0.247613 0.247774 0.247935 0.248093 0.248252 0.248414 0.248579 0.248747 0.248905 0.249077 0.249231 0.249398 0.249566 0.249723 0.249895 0.250058 0.25023 0.250403 0.250562 0.250725 0.250904 0.251076 0.251242 0.25142 0.251579 0.251755 0.25193 0.252097 0.252262 0.252446 0.252615 0.252788 0.252963 0.253138 0.253306 0.253481 0.253676 0.253841 0.254026 0.254193 0.254372 0.254552 0.254733 0.254914 0.255092 0.255268 0.25545 0.25564 0.255809 0.255996 0.256181 0.256357
0.256474 0.256287 0.256103 0.255926 0.255743 0.255564 0.255391 0.255205 0.255024 0.254849 0.25467 0.254481 0.254309 0.254137 0.253955 0.253777 0.253601 0.253426 0.253243 0.253078 0.252902 0.252725 0.252562 0.252383 0.252217 0.25204 0.251864 0.251694 0.251524 0.251352 0.251191 0.251015 0.250849 0.250681 0.250515 0.25034 0.25018 0.25001 0.249846 0.249679 0.249516 0.249349 0.249186 0.249025 0.248857 0.248699 0.248529 0.248374 0.248213 0.248052 0.247891 0.247735 0.247577 0.247418 0.247254 0.247101 0.24694 0.246786 0.246632 0.246474 0.246314 0.246163 0.246009 0.245859 0.245707 0.245548 0.2454 0.245248 0.245095 0.244942 0.244794 0.244643 0.244498 0.244342 0.244201 0.244055 0.243903 0.243764 0.243612 0.243471 0.243325 0.243179 0.243036 0.242892 0.242752 0.242607 0.242464 0.242321 0.242182 0.242045 0.2419 0.241767 0.241628 0.241482 0.241349 0.241212 0.241077 0.240944 0.240801 0.240666 0.240533 0.240398 0.240266 0.240135 0.24 0.239872 0.239735 0.239602 0.239476 0.239352 0.239224 0.239091 0.238965 0.238836 0.238708 0.238584 0.238459 0.238329 0.238199 0.238086 0.23796 0.23784 0.237716 0.237592 0.237471 0.237352 0.237231 0.237105 0.236993 0.236875 0.236752 0.236639 0.236523 0.23641 0.23629 0.236172 0.236058 0.235946 0.235832 0.235714 0.235605 0.235491 0.235383 0.235275 0.235168 0.235054 0.234951 0.234838 0.234729 0.234626 0.234514 0.234413 0.234303 0.234195 0.2341 0.23399 0.233889 0.233791 0.233684 0.233581 0.23348 0.233382 0.233287 0.233184 0.233089 0.232986 0.232892 0.232799 0.232696 0.232602 0.232509 0.232407 0.232322 0.232222 0.232126 0.232047 0.231954 0.23186 0.231772 0.231683 0.231587 0.231502 0.231419 0.231333 0.231248 0.231158 0.231075 0.230988 0.230904 0.230824 0.230734 0.230657 0.230575 0.230497 0.230408 0.230336 0.230253 0.230172 0.230097 0.230015 0.229941 0.229869 0.229792 0.229712 0.229641 0.229564 0.229497 0.229424 0.229354 0.229281 0.229209 0.229141 0.22907 0.228999 0.228935 0.228862 0.228798 0.228736 0.228669 0.228603 0.22854 0.228474 0.228413 0.228347 0.228286 0.228223 0.228162 0.228108 0.228046 0.227989 0.22793 0.227871 0.227811 0.227761 0.227703 0.227642 0.227593 0.227545 0.227487 0.227432 0.22738 0.227336 0.22728 0.227233 0.227185 0.227133 0.227086 0.227038 0.226991 0.226947 0.226901 0.22686 0.226818 0.226772 0.226727 0.226684 0.226642 0.2266 0.226564 0.226521 0.226484 0.226444 0.226407 0.22637 0.226331 0.2263 0.226263 0.226229 0.226196 0.226161 0.226132 0.226099 0.226068 0.226033 0.226004 0.225973 0.225946 0.225921 0.225894 0.225866 0.225841 0.225816 0.225788 0.225768 0.225741 0.225724 0.225696 0.225676 0.225655 0.225637 0.225611 0.225596 0.225578 0.225557 0.225547 0.22553 0.225511 0.225496 0.225486 0.225466 0.225456 0.225444 0.225431 0.225419 0.225411 0.225403 0.225392 0.225381 0.225377 0.225365 0.225356 0.225352 0.225348 0.225344 0.225341 0.225341 0.225337 0.225328 0.225335 0.22533 0.225333 0.225338 0.225334 0.225339 0.225336 0.225337 0.225346 0.225347 0.225356 0.225361 0.225368 0.225376 0.225379 0.225392 0.2254 0.225409 0.225419 0.225434 0.225442 0.225453 0.225467 0.22548 0.225494 0.22551 0.225527 0.225548 0.22556 0.225579 0.225595 0.225615 0.225634 0.225654 0.225679 0.225697 0.225717 0.225744 0.225763 0.225787 0.225818 0.225835 0.225868 0.22589 0.225921 0.22595 0.225979 0.226008 0.226035 0.226065 0.226097 0.226129 0.226165 0.226196 0.22623 0.226266 0.226295 0.226333 0.22637 0.226407 0.226446 0.226481 0.226527 0.226559 0.2266 0.226644 0.226686 0.226729 0.226766 0.226815 0.226853 0.226902 0.226946 0.226988 0.227037 0.227082 0.227134 0.227185 0.227229 0.227286 0.227334 0.227378 0.227433 0.227487 0.227541 0.227597 0.227644 0.227706 0.227759 0.227819 0.227872 0.227929 0.227987 0.22805 0.228106 0.228166 0.228227 0.228286 0.228346 0.228411 0.22847 0.228541 0.228605 0.228664 0.228733 0.228798 0.228867 0.228936 0.229005 0.229074 0.229133 0.229207 0.229279 0.229353 0.229428 0.229496 0.22957 0.229644 0.229718 0.22979 0.229866 0.229946 0.230018 0.230091 0.230173 0.230255 0.230332 0.230414 0.23049 0.230575 0.230649 0.230738 0.230823 0.2309 0.230988 0.231071 0.231154 0.231242 0.231329 0.231422 0.231506 0.23159 0.231683 0.231774 0.231862 0.231954 0.232041 0.232127 0.232223 0.232317 0.232413 0.232507 0.232599 0.232695 0.232792 0.232893 0.232986 0.233086 0.233182 0.233279 0.23338 0.233489 0.233582 0.233686 0.233785 0.233886 0.233991 0.234092 0.234202 0.234301 0.234405 0.234513 0.234623 0.234729 0.234835 0.23494 0.235048 0.23516 0.235273 0.235381 0.2355 0.235608 0.235721 0.235833 0.235941 0.236057 0.236176 0.236295 0.236409 0.236522 0.236638 0.236754 0.236863 0.236986 0.237115 0.237223 0.237351 0.237473 0.237589 0.237715 0.237835 0.23796 0.238088 0.238201 0.23833 0.238454 0.23858 0.238708 0.238837 0.238965 0.239097 0.23922 0.239348 0.239478 0.239607 0.239741 0.239871 0.240001 0.240136 0.240265 0.240399 0.240531 0.240669 0.240805 0.240935 0.241077 0.241214 0.241348 0.241481 0.241623 0.241761 0.241904 0.242039 0.242183 0.242326 0.242463 0.242604 0.242749 0.242894 0.243031 0.243177 0.243323 0.243798 0.243614 0.243757 0.243907 0.244052 0.2442 0.244348 0.244497 0.244647 0.2448 0.244939 0.245099 0.245247 0.245392 0.245553 0.245698 0.245861 0.246004 0.246165 0.246318 0.246474 0.246627 0.246785 0.246942 0.247095 0.247255 0.247418 0.247575 0.247733 0.247891 0.248045 0.248214 0.248375 0.248527 0.248705 0.248857 0.24902 0.249187 0.249356 0.249515 0.249679 0.24984 0.250011 0.250176 0.250336 0.25051 0.250683 0.250848 0.251017 0.251185 0.251347 0.251523 0.25169 0.251865 0.252044 0.252211 0.252387 0.252562 0.252727 0.252897 0.253073 0.253248 0.253435 0.253608 0.253771 0.253957 0.254136 0.254307 0.254484 0.254667 0.25484 0.255025 0.255207 0.255375 0.255563 0.255757 0.255926 0.256112 0.256292 0.256472
0.256589 0.256407 0.256217 0.256042 0.255859 0.255673 0.2555 0.255315 0.255134 0.254963 0.254771 0.254601 0.254419 0.254246 0.254068 0.253892 0.253711 0.253537 0.253362 0.253194 0.253018 0.252837 0.252673 0.252491 0.252325 0.252156 0.251979 0.25181 0.251636 0.251463 0.251304 0.251125 0.250966 0.250801 0.250621 0.250458 0.250296 0.250121 0.249961 0.249795 0.24963 0.24947 0.249295 0.249132 0.248974 0.248809 0.24865 0.248491 0.24833 0.248169 0.248001 0.247853 0.24769 0.247525 0.247374 0.247217 0.247066 0.246909 0.246748 0.246592 0.246438 0.246275 0.246123 0.24597 0.245828 0.245665 0.245514 0.245366 0.245213 0.245067 0.244914 0.244767 0.244615 0.244463 0.244317 0.244168 0.244026 0.24388 0.243729 0.243577 0.243438 0.243297 0.243157 0.243019 0.242875 0.242722 0.242586 0.242442 0.2423 0.242163 0.242021 0.24188 0.241743 0.241606 0.241465 0.241329 0.241197 0.241055 0.240925 0.240782 0.240655 0.240524 0.240388 0.240253 0.240118 0.239992 0.239857 0.239731 0.239598 0.239467 0.239339 0.239211 0.239081 0.238952 0.23883 0.2387 0.238577 0.238454 0.238328 0.238202 0.238079 0.237959 0.237841 0.237715 0.237595 0.237472 0.237348 0.237232 0.237117 0.236996 0.236877 0.23676 0.236643 0.236526 0.236407 0.236293 0.23618 0.236066 0.235955 0.235843 0.23573 0.235619 0.235508 0.235393 0.235292 0.235177 0.235068 0.234952 0.234852 0.234741 0.234636 0.234536 0.23443 0.234326 0.23422 0.234118 0.234013 0.233909 0.233806 0.233708 0.233605 0.233506 0.233407 0.23331 0.233211 0.23311 0.233011 0.232913 0.232822 0.232724 0.232631 0.232537 0.232446 0.232352 0.232262 0.232167 0.232073 0.231984 0.231891 0.231808 0.231711 0.231629 0.231541 0.231452 0.231368 0.231281 0.231197 0.231115 0.231027 0.23094 0.230859 0.230781 0.230702 0.230615 0.230535 0.230462 0.230375 0.230301 0.230218 0.230136 0.230068 0.229989 0.229916 0.229846 0.229767 0.229699 0.229622 0.229551 0.22948 0.229408 0.229336 0.229263 0.229192 0.229129 0.229064 0.228991 0.228924 0.228854 0.228792 0.228733 0.228665 0.228601 0.228542 0.228475 0.228417 0.228354 0.228289 0.228233 0.228171 0.228114 0.228055 0.228 0.22794 0.227884 0.22783 0.227778 0.22772 0.227665 0.227614 0.227563 0.227513 0.227458 0.227412 0.22736 0.22731 0.227261 0.227216 0.227169 0.227123 0.227076 0.227029 0.226983 0.22694 0.226899 0.226853 0.226813 0.226767 0.22673 0.226691 0.22665 0.226609 0.226572 0.226537 0.226496 0.226461 0.226422 0.226389 0.226356 0.22632 0.226293 0.226257 0.226228 0.226194 0.226162 0.226131 0.226105 0.226073 0.226051 0.226021 0.225993 0.225967 0.225942 0.225916 0.225887 0.22587 0.225846 0.22583 0.225805 0.225784 0.225766 0.22574 0.225724 0.225708 0.225684 0.225674 0.225651 0.225637 0.225627 0.225611 0.225596 0.225582 0.225574 0.225557 0.225549 0.225537 0.225527 0.225521 0.225508 0.225502 0.225499 0.225485 0.225484 0.225477 0.225474 0.22547 0.225463 0.225469 0.225462 0.225459 0.22546 0.225459 0.225462 0.225465 0.225462 0.225465 0.225474 0.225475 0.225482 0.225484 0.225488 0.225498 0.225501 0.225509 0.225519 0.225531 0.225536 0.22555 0.225558 0.225567 0.225583 0.225599 0.225609 0.225623 0.225642 0.225657 0.225671 0.225688 0.225702 0.225725 0.225745 0.225766 0.22578 0.225803 0.225825 0.225843 0.22587 0.22589 0.225918 0.225942 0.225967 0.225993 0.226019 0.226049 0.226076 0.226105 0.226131 0.226163 0.226195 0.226223 0.226257 0.226289 0.226325 0.226358 0.22639 0.226424 0.226461 0.226496 0.226539 0.226574 0.226611 0.226651 0.226684 0.22673 0.226768 0.226813 0.226856 0.226894 0.226934 0.226985 0.227033 0.227073 0.227123 0.227168 0.227211 0.22726 0.227307 0.227357 0.227411 0.22746 0.227509 0.227569 0.227617 0.227664 0.22772 0.227774 0.227833 0.227887 0.227946 0.227996 0.228055 0.228111 0.22817 0.228227 0.228287 0.228353 0.228416 0.228477 0.228541 0.2286 0.228657 0.228725 0.228794 0.228858 0.228924 0.228994 0.22906 0.22913 0.229196 0.229266 0.229331 0.229404 0.229475 0.22955 0.229626 0.229698 0.229765 0.229843 0.229913 0.229992 0.23007 0.230145 0.230223 0.230294 0.230382 0.230453 0.230531 0.230617 0.230696 0.230778 0.230859 0.230948 0.231028 0.231113 0.231197 0.231281 0.231367 0.23145 0.231544 0.231627 0.231717 0.231801 0.231896 0.231984 0.232077 0.23217 0.232257 0.232357 0.232444 0.232534 0.232639 0.232725 0.23282 0.232922 0.23301 0.23311 0.233211 0.233308 0.233403 0.233503 0.233603 0.233704 0.233804 0.233911 0.234016 0.234112 0.234218 0.234321 0.234436 0.23453 0.234637 0.234744 0.234855 0.23496 0.235066 0.235173 0.235285 0.235396 0.235504 0.235617 0.235727 0.235836 0.235959 0.236068 0.236179 0.236301 0.23641 0.236525 0.236645 0.236758 0.236876 0.236992 0.237116 0.237231 0.237349 0.237467 0.237592 0.237712 0.237832 0.237957 0.238077 0.2382 0.238333 0.238451 0.238582 0.238704 0.238832 0.238955 0.239078 0.239211 0.23933 0.239469 0.239602 0.239726 0.239854 0.239987 0.240125 0.240253 0.240394 0.240516 0.240659 0.240786 0.240923 0.241059 0.241196 0.241327 0.241467 0.241604 0.241744 0.241881 0.242018 0.242157 0.242301 0.242439 0.242584 0.242724 0.242872 0.243011 0.243151 0.243298 0.24344 0.243586 0.243726 0.243876 0.244027 0.244165 0.244321 0.244469 0.244615 0.244757 0.244908 0.245064 0.245209 0.24536 0.245513 0.245666 0.245817 0.245975 0.246128 0.246278 0.24643 0.246592 0.246746 0.246905 0.247057 0.247219 0.24737 0.247525 0.247687 0.24785 0.248006 0.248172 0.248324 0.248489 0.248657 0.248809 0.24898 0.249138 0.249304 0.249468 0.249628 0.249799 0.249958 0.250121 0.250295 0.250457 0.250622 0.250797 0.250962 0.251131 0.251302 0.251468 0.25164 0.251813 0.251981 0.252146 0.252323 0.252489 0.252663 0.252843 0.253013 0.253194 0.253366 0.253539 0.253719 0.253893 0.254069 0.254247 0.254422 0.254601 0.254778 0.254953 0.255137 0.255316 0.255492 0.255674 0.255854 0.256042 0.256221 0.256397 0.256587
0.256698 0.256517 0.256329 0.256158 0.255974 0.255794 0.255608 0.255426 0.255246 0.255075 0.254893 0.254715 0.254538 0.25436 0.254177 0.254 0.253826 0.253651 0.253478 0.253314 0.25314 0.252956 0.252788 0.252615 0.252432 0.252268 0.252097 0.25192 0.251756 0.251591 0.251412 0.251252 0.251077 0.250908 0.250744 0.250572 0.250406 0.250246 0.250077 0.249915 0.249742 0.249576 0.24942 0.249255 0.249088 0.248932 0.248769 0.248608 0.248447 0.248286 0.248126 0.24796 0.24781 0.24765 0.247483 0.247331 0.247176 0.247014 0.246872 0.24671 0.246552 0.246397 0.246243 0.24609 0.245939 0.245785 0.245633 0.245483 0.245329 0.24518 0.24503 0.244884 0.244732 0.244586 0.24443 0.244287 0.244148 0.243996 0.243854 0.243703 0.24356 0.243419 0.243276 0.243128 0.242988 0.242843 0.242706 0.242557 0.242423 0.242282 0.242143 0.242002 0.241865 0.241718 0.241592 0.241451 0.241317 0.241179 0.241042 0.240912 0.240769 0.240634 0.240514 0.240372 0.240242 0.240105 0.239981 0.239853 0.239714 0.239591 0.239463 0.239331 0.239205 0.239067 0.238952 0.238825 0.238704 0.238572 0.238452 0.238328 0.238203 0.238084 0.23795 0.237833 0.237713 0.237593 0.237474 0.237356 0.237238 0.237119 0.237002 0.236881 0.236767 0.236646 0.236531 0.23642 0.236307 0.236189 0.23608 0.235958 0.235853 0.235743 0.23563 0.235523 0.235412 0.235302 0.235187 0.23508 0.234972 0.234866 0.234766 0.234658 0.234554 0.234444 0.234339 0.234235 0.234136 0.23403 0.23393 0.233834 0.233732 0.233627 0.233527 0.233439 0.233335 0.233236 0.233138 0.23304 0.232949 0.232849 0.232756 0.232662 0.232569 0.232471 0.232383 0.232288 0.232197 0.232108 0.232026 0.231935 0.231839 0.231752 0.231671 0.231581 0.231492 0.231406 0.231316 0.231234 0.231151 0.231072 0.230985 0.2309 0.230824 0.230739 0.230664 0.230583 0.230504 0.230423 0.230348 0.230272 0.230193 0.230117 0.230042 0.229967 0.229896 0.229816 0.229748 0.229674 0.229602 0.229536 0.229463 0.229389 0.229324 0.229257 0.229183 0.229118 0.22905 0.22899 0.228919 0.228853 0.228791 0.228731 0.228666 0.228604 0.228538 0.228483 0.228419 0.228356 0.2283 0.228241 0.228184 0.228127 0.228067 0.228019 0.227957 0.227906 0.227851 0.227796 0.227741 0.22769 0.227636 0.227587 0.227535 0.22748 0.227434 0.227386 0.227339 0.227294 0.227252 0.227204 0.227156 0.227108 0.227065 0.227019 0.226982 0.226938 0.2269 0.226856 0.226815 0.226776 0.226736 0.226697 0.226665 0.226628 0.226587 0.226554 0.226517 0.226484 0.22645 0.226419 0.226386 0.226352 0.226323 0.226289 0.226262 0.226231 0.226203 0.226173 0.226151 0.226119 0.226099 0.226067 0.226046 0.226019 0.226002 0.225972 0.225952 0.225932 0.225911 0.225896 0.225874 0.225851 0.225838 0.225814 0.225801 0.225781 0.225767 0.225751 0.225739 0.225729 0.225708 0.225704 0.225685 0.225677 0.225666 0.225658 0.225644 0.22564 0.225627 0.225621 0.225618 0.225616 0.225608 0.225605 0.225599 0.225597 0.22559 0.225586 0.225588 0.225586 0.225587 0.225585 0.22559 0.225588 0.2256 0.2256 0.225602 0.225604 0.22561 0.225616 0.225626 0.22563 0.225641 0.225649 0.225656 0.225667 0.225677 0.225684 0.225705 0.225713 0.225728 0.225742 0.225751 0.225773 0.22578 0.225794 0.225821 0.22583 0.225849 0.225874 0.225888 0.225912 0.225928 0.225951 0.225974 0.226001 0.226023 0.226046 0.226067 0.226096 0.226119 0.226146 0.226178 0.226205 0.226231 0.226263 0.226292 0.226326 0.226351 0.226385 0.226419 0.226451 0.226484 0.226514 0.226554 0.22659 0.226626 0.226663 0.226698 0.226737 0.226777 0.226815 0.226855 0.226898 0.226944 0.226978 0.227025 0.22707 0.227104 0.227155 0.227202 0.227249 0.227296 0.227341 0.227387 0.227438 0.227489 0.22754 0.227585 0.227635 0.227688 0.227743 0.227789 0.227848 0.227903 0.227954 0.228017 0.228064 0.228123 0.228176 0.228241 0.228301 0.228359 0.228418 0.228476 0.228537 0.228603 0.228662 0.228726 0.228791 0.228856 0.228916 0.228983 0.229046 0.22912 0.229191 0.229247 0.229321 0.229391 0.229456 0.229532 0.229602 0.229674 0.229754 0.229823 0.229895 0.229966 0.23004 0.230118 0.23019 0.230276 0.230346 0.230425 0.2305 0.23058 0.230662 0.230744 0.230821 0.230905 0.230987 0.231068 0.231152 0.231241 0.23132 0.231409 0.231495 0.231569 0.231665 0.23175 0.231836 0.231929 0.232021 0.232109 0.232199 0.232292 0.232384 0.232475 0.232566 0.232659 0.232753 0.232852 0.232942 0.233042 0.233139 0.233235 0.233331 0.233433 0.23353 0.23363 0.233729 0.23383 0.233924 0.234032 0.234134 0.234238 0.234342 0.234441 0.234545 0.234652 0.234765 0.234866 0.234977 0.23508 0.235192 0.2353 0.235413 0.23552 0.235629 0.23574 0.235848 0.235962 0.236075 0.236192 0.236296 0.236418 0.236533 0.23665 0.236763 0.236881 0.236999 0.237115 0.237234 0.237359 0.237475 0.237597 0.237713 0.23784 0.237958 0.238079 0.238202 0.23832 0.238451 0.238573 0.238703 0.238825 0.238952 0.239081 0.239204 0.239327 0.239456 0.239596 0.239717 0.239849 0.23998 0.240111 0.240242 0.24037 0.240511 0.240638 0.240778 0.24091 0.241042 0.24118 0.241318 0.241445 0.241587 0.241718 0.241861 0.242005 0.242145 0.242283 0.242419 0.242561 0.242705 0.242845 0.242985 0.243134 0.243268 0.243412 0.243561 0.243703 0.243853 0.243989 0.244141 0.244289 0.244433 0.244587 0.244734 0.244881 0.24503 0.245182 0.245327 0.245485 0.245631 0.245779 0.245943 0.24609 0.246245 0.246402 0.246552 0.246711 0.246863 0.247019 0.247175 0.247336 0.24749 0.247646 0.247802 0.247962 0.248121 0.248286 0.248444 0.248599 0.248774 0.248933 0.249089 0.249253 0.249418 0.249583 0.249746 0.249904 0.250074 0.250237 0.25041 0.250574 0.25074 0.250908 0.251073 0.251253 0.251411 0.251585 0.251755 0.251923 0.252099 0.25227 0.252437 0.252616 0.252792 0.252956 0.253135 0.253308 0.253476 0.253663 0.253827 0.254007 0.254185 0.254355 0.254534 0.254718 0.254893 0.255068 0.255251 0.25543 0.255616 0.255797 0.255973 0.256153 0.256324 0.256524 0.256694
0.256811 0.256633 0.256446 0.256271 0.256085 0.255906 0.255725 0.255546 0.255361 0.255188 0.255004 0.254819 0.254657 0.254468 0.254304 0.254121 0.253949 0.253769 0.253593 0.253417 0.253249 0.253067 0.252902 0.252727 0.25255 0.25238 0.252216 0.25204 0.251863 0.251698 0.251528 0.251357 0.251194 0.251027 0.250849 0.250694 0.250529 0.250356 0.250193 0.250031 0.249858 0.249698 0.249533 0.249364 0.249211 0.249049 0.248884 0.248723 0.248559 0.248398 0.24825 0.248084 0.247915 0.247773 0.247606 0.247454 0.247295 0.247135 0.246982 0.246831 0.246663 0.246518 0.246359 0.246213 0.246056 0.245903 0.245756 0.245603 0.24545 0.245299 0.245149 0.245003 0.244853 0.244701 0.244559 0.244409 0.244261 0.244115 0.243966 0.24382 0.243677 0.243536 0.243393 0.24325 0.243105 0.242968 0.242826 0.242679 0.242537 0.242404 0.242256 0.242116 0.241984 0.241853 0.241712 0.241568 0.241441 0.241303 0.241161 0.24103 0.240897 0.240758 0.240628 0.2405 0.240362 0.240241 0.240101 0.239972 0.23984 0.239705 0.239584 0.239458 0.239325 0.239197 0.239069 0.238947 0.238819 0.238693 0.23857 0.238448 0.238321 0.238206 0.238082 0.23796 0.237836 0.237712 0.237595 0.237478 0.237358 0.237238 0.237121 0.237004 0.236888 0.236771 0.236657 0.236541 0.236428 0.236316 0.236199 0.236092 0.235973 0.235863 0.235756 0.235644 0.235527 0.235424 0.235312 0.235203 0.235098 0.235001 0.234886 0.234777 0.23467 0.234575 0.234467 0.234365 0.234258 0.234159 0.234058 0.233957 0.23386 0.233754 0.233651 0.233556 0.233462 0.233362 0.233262 0.233165 0.233071 0.232976 0.232883 0.232786 0.23269 0.232602 0.232507 0.232414 0.232324 0.23224 0.232149 0.23205 0.231968 0.231877 0.23179 0.231708 0.231618 0.231531 0.231447 0.231364 0.231276 0.2312 0.231115 0.23103 0.230948 0.230872 0.230788 0.230712 0.230632 0.23055 0.230468 0.230398 0.230323 0.230244 0.230171 0.230093 0.23002 0.229945 0.229873 0.229806 0.229732 0.229652 0.22959 0.229517 0.229448 0.229381 0.22931 0.229247 0.229179 0.229108 0.229048 0.228983 0.22892 0.228857 0.22879 0.228731 0.228665 0.228609 0.228538 0.228482 0.228428 0.22837 0.228312 0.228252 0.228193 0.228136 0.228081 0.228032 0.227978 0.227922 0.227868 0.227817 0.227763 0.227721 0.227666 0.227616 0.227566 0.227515 0.227465 0.227423 0.227375 0.227332 0.22728 0.227239 0.227194 0.227153 0.227109 0.227066 0.227025 0.226986 0.226946 0.226904 0.226868 0.226828 0.226796 0.226754 0.226723 0.22668 0.226651 0.226611 0.22658 0.226548 0.226512 0.22648 0.226448 0.226424 0.226387 0.226362 0.226331 0.226303 0.226277 0.226253 0.226223 0.226197 0.226174 0.226151 0.226123 0.226102 0.226078 0.226052 0.226042 0.226014 0.225997 0.225982 0.225963 0.225946 0.225926 0.225909 0.225893 0.22588 0.22587 0.225854 0.225839 0.225832 0.225817 0.225806 0.22579 0.225787 0.225775 0.22577 0.225763 0.225752 0.225752 0.22574 0.225737 0.225731 0.225729 0.22572 0.225721 0.225721 0.225717 0.225723 0.225717 0.225717 0.22572 0.225719 0.225724 0.225727 0.225732 0.22574 0.225741 0.225744 0.225752 0.225761 0.225772 0.225781 0.225781 0.225797 0.225806 0.225814 0.225826 0.225838 0.225852 0.225864 0.225881 0.225897 0.225912 0.225929 0.225946 0.225963 0.225982 0.225999 0.226022 0.226038 0.226061 0.22608 0.226106 0.226123 0.226148 0.226178 0.226202 0.226225 0.226249 0.226278 0.226305 0.226332 0.226362 0.226389 0.226417 0.226452 0.226478 0.22651 0.226549 0.22658 0.226611 0.226648 0.226685 0.226719 0.226756 0.226787 0.226827 0.226863 0.226911 0.226947 0.226986 0.227025 0.227068 0.227107 0.227154 0.227197 0.227242 0.227285 0.227331 0.227377 0.227421 0.227471 0.227515 0.227567 0.227615 0.227661 0.227716 0.227765 0.227818 0.22787 0.227926 0.227976 0.228029 0.228084 0.22814 0.228193 0.22825 0.22831 0.228374 0.228423 0.228487 0.228546 0.228601 0.228664 0.228727 0.228788 0.228854 0.228915 0.228983 0.229045 0.229107 0.229173 0.229244 0.229316 0.229376 0.229449 0.229518 0.229586 0.229661 0.22973 0.229799 0.229876 0.229945 0.230015 0.230096 0.230166 0.230243 0.230322 0.230396 0.230477 0.23055 0.23063 0.230708 0.230786 0.230866 0.230949 0.23103 0.231114 0.231195 0.231279 0.231363 0.231444 0.23153 0.231617 0.231703 0.231788 0.231878 0.231967 0.232055 0.232146 0.232238 0.232324 0.232418 0.232508 0.232599 0.232694 0.232788 0.232884 0.232978 0.233071 0.23317 0.233264 0.233359 0.233459 0.23356 0.233652 0.233752 0.233854 0.233948 0.234051 0.234154 0.234253 0.234363 0.234465 0.234572 0.23467 0.23478 0.234887 0.23499 0.235096 0.235212 0.235316 0.235425 0.23553 0.235644 0.23575 0.235867 0.23597 0.236084 0.236194 0.236315 0.236429 0.236537 0.236654 0.236771 0.236888 0.236994 0.237121 0.237241 0.23736 0.23748 0.237603 0.23772 0.237828 0.237955 0.238082 0.238202 0.238328 0.238443 0.238573 0.238694 0.238826 0.238945 0.239066 0.239206 0.239326 0.23945 0.239581 0.239715 0.239842 0.239968 0.2401 0.240232 0.240362 0.2405 0.240624 0.240766 0.240891 0.241029 0.24117 0.24129 0.241431 0.241569 0.241712 0.241846 0.241982 0.242121 0.242254 0.242401 0.242537 0.242672 0.242819 0.24296 0.243105 0.243249 0.243385 0.243539 0.243679 0.243835 0.243972 0.244114 0.244258 0.244405 0.244554 0.244698 0.244849 0.245002 0.245152 0.245297 0.245443 0.245599 0.245755 0.245903 0.246059 0.246205 0.246359 0.246511 0.246673 0.246828 0.246977 0.247141 0.247294 0.247449 0.247605 0.247765 0.247927 0.248084 0.248249 0.248399 0.248561 0.248722 0.248881 0.249045 0.249208 0.249365 0.249531 0.2497 0.24986 0.25003 0.250187 0.250361 0.250523 0.250694 0.250864 0.251024 0.251192 0.251365 0.25153 0.251691 0.251869 0.252042 0.252206 0.252383 0.252554 0.252726 0.2529 0.253072 0.253243 0.253421 0.253595 0.253769 0.253943 0.254123 0.254303 0.254465 0.254651 0.254831 0.255006 0.255191 0.255362 0.255545 0.255733 0.255907 0.256088 0.256267 0.256446 0.256628 0.25681
0.256931 0.25675 0.256561 0.256385 0.256196 0.25602 0.255839 0.255657 0.255479 0.255297 0.255128 0.254942 0.254766 0.254592 0.254409 0.25424 0.254058 0.253881 0.253711 0.253534 0.253363 0.25319 0.253024 0.252839 0.252669 0.2525 0.252331 0.252155 0.251991 0.251825 0.251653 0.251478 0.251304 0.251142 0.250972 0.250814 0.250647 0.250478 0.250305 0.250146 0.249987 0.249817 0.249654 0.249484 0.249325 0.249164 0.249001 0.248844 0.248678 0.248519 0.248358 0.248198 0.248039 0.247884 0.247724 0.247567 0.247414 0.247257 0.247098 0.246945 0.246789 0.246631 0.246485 0.246329 0.246181 0.246021 0.245869 0.245718 0.24557 0.245419 0.245271 0.245122 0.244977 0.244825 0.244667 0.24453 0.244381 0.244238 0.244087 0.243949 0.243797 0.243659 0.243515 0.243365 0.243231 0.243077 0.242941 0.242801 0.242669 0.242521 0.242382 0.242239 0.242105 0.241963 0.241827 0.241689 0.241558 0.24142 0.241283 0.241151 0.241017 0.24088 0.24075 0.240622 0.24049 0.240354 0.240229 0.240099 0.23996 0.239833 0.239699 0.239575 0.239448 0.239324 0.239191 0.23907 0.238942 0.23882 0.238705 0.238574 0.238454 0.238327 0.2382 0.238079 0.237961 0.237839 0.237719 0.237595 0.237483 0.237364 0.237245 0.237127 0.237014 0.236891 0.236781 0.236663 0.236552 0.236435 0.236322 0.236209 0.236098 0.235986 0.235877 0.235766 0.235652 0.235542 0.235435 0.235331 0.235224 0.235121 0.235012 0.234907 0.234798 0.234698 0.234589 0.234487 0.234386 0.234286 0.234179 0.234078 0.233986 0.23388 0.233778 0.233674 0.233583 0.233481 0.233387 0.233296 0.233195 0.233102 0.233008 0.232913 0.232819 0.23272 0.232633 0.232544 0.23245 0.232365 0.232267 0.232179 0.232094 0.232007 0.231919 0.23183 0.23174 0.231657 0.231571 0.231485 0.231405 0.231319 0.23124 0.231161 0.231077 0.230998 0.230914 0.230837 0.230761 0.230679 0.230601 0.230533 0.230444 0.230372 0.230293 0.230223 0.230146 0.230071 0.229997 0.229928 0.229855 0.229782 0.229716 0.229646 0.229573 0.22951 0.229442 0.229374 0.229307 0.229242 0.229177 0.22911 0.229045 0.228981 0.228913 0.228858 0.228795 0.228728 0.228674 0.228616 0.228555 0.228497 0.228435 0.228382 0.228324 0.228272 0.228217 0.228154 0.228106 0.228048 0.227997 0.227947 0.227896 0.227844 0.227793 0.227738 0.227699 0.227646 0.227597 0.227554 0.227499 0.227459 0.22742 0.227368 0.227321 0.227285 0.22724 0.227199 0.227156 0.227114 0.227072 0.227032 0.226998 0.22696 0.226917 0.226883 0.226849 0.226812 0.226775 0.226738 0.226709 0.226677 0.226643 0.226609 0.226577 0.226551 0.226522 0.226489 0.226462 0.226432 0.22641 0.226378 0.226353 0.22633 0.226305 0.226278 0.226253 0.226233 0.226212 0.226191 0.226169 0.226149 0.22613 0.226113 0.226091 0.226073 0.22606 0.226042 0.22603 0.226011 0.225999 0.225986 0.225974 0.225955 0.225948 0.225934 0.225924 0.225916 0.225905 0.2259 0.225887 0.225883 0.225875 0.22587 0.225863 0.225855 0.225855 0.225858 0.225853 0.225844 0.225845 0.225844 0.225847 0.225849 0.225849 0.225852 0.225851 0.225853 0.225859 0.225865 0.225872 0.225879 0.225882 0.225889 0.225892 0.225906 0.225919 0.225923 0.225931 0.225943 0.225954 0.225972 0.225979 0.225997 0.226012 0.226023 0.22604 0.226055 0.226077 0.226094 0.226111 0.226127 0.226148 0.226173 0.226191 0.226214 0.22623 0.226255 0.226282 0.226304 0.226328 0.226357 0.226379 0.226406 0.226429 0.226459 0.226494 0.226518 0.226551 0.226574 0.226607 0.226643 0.226677 0.226709 0.226739 0.226778 0.226809 0.226845 0.226883 0.226921 0.226957 0.226994 0.227034 0.227072 0.227111 0.227155 0.227197 0.227242 0.227283 0.227324 0.227369 0.227415 0.227462 0.227509 0.227548 0.227598 0.227649 0.227695 0.22774 0.227794 0.227842 0.227893 0.227944 0.227998 0.228052 0.22811 0.228153 0.228209 0.228265 0.228321 0.228384 0.228439 0.228497 0.228558 0.22861 0.228681 0.228738 0.228792 0.22886 0.228922 0.228979 0.229048 0.229107 0.229173 0.229237 0.229307 0.229371 0.22944 0.229515 0.229576 0.229645 0.229711 0.229788 0.229854 0.229931 0.229999 0.230072 0.230146 0.230221 0.230294 0.230369 0.230449 0.230524 0.230605 0.230675 0.230754 0.230834 0.230919 0.230994 0.231077 0.231153 0.231242 0.231323 0.231405 0.23149 0.231575 0.231655 0.231743 0.231833 0.231911 0.232004 0.232092 0.232185 0.232266 0.232361 0.232453 0.232547 0.232636 0.232722 0.232817 0.232909 0.233009 0.233106 0.233192 0.233289 0.233384 0.233491 0.233584 0.233682 0.233782 0.233886 0.233982 0.234078 0.234181 0.234284 0.234388 0.234487 0.234588 0.234695 0.234797 0.2349 0.235008 0.235118 0.23522 0.235327 0.235442 0.235545 0.235657 0.235768 0.23587 0.235989 0.236099 0.236205 0.236328 0.236433 0.236555 0.236668 0.236783 0.236896 0.237012 0.237122 0.237244 0.237361 0.237482 0.237599 0.237717 0.23784 0.237962 0.238081 0.238201 0.23832 0.23845 0.238574 0.23869 0.238819 0.238945 0.239069 0.239203 0.239317 0.239448 0.239574 0.239702 0.23983 0.23996 0.240091 0.240227 0.240353 0.24048 0.240616 0.240749 0.240884 0.241018 0.241159 0.241284 0.241419 0.241555 0.241689 0.241824 0.241966 0.242109 0.242247 0.242381 0.24252 0.242661 0.242802 0.242944 0.243088 0.24322 0.243365 0.243505 0.243648 0.243802 0.243945 0.244093 0.244232 0.244374 0.244528 0.244671 0.244821 0.244973 0.245124 0.24527 0.245418 0.24557 0.245718 0.24587 0.246023 0.246177 0.24633 0.246482 0.246636 0.24679 0.246933 0.247101 0.247251 0.247411 0.247575 0.247728 0.247879 0.248036 0.248197 0.248361 0.248525 0.248676 0.248841 0.249 0.249165 0.249329 0.249486 0.249651 0.249814 0.249981 0.250149 0.250313 0.250475 0.250643 0.250799 0.250973 0.251144 0.251309 0.251478 0.251649 0.251812 0.251984 0.252155 0.252315 0.252498 0.252665 0.252838 0.253019 0.253188 0.25336 0.253533 0.253706 0.253882 0.254061 0.254233 0.254414 0.254589 0.254767 0.254947 0.255122 0.2553 0.25548 0.255662 0.255843 0.256018 0.256193 0.256388 0.256564 0.256748 0.25692
0.25705 0.256851 0.25667 0.2565 0.256311 0.25613 0.25596 0.255773 0.255597 0.255419 0.255239 0.255059 0.254878 0.2547 0.254532 0.254358 0.254176 0.254002 0.253826 0.25365 0.253478 0.253304 0.253133 0.252958 0.252787 0.252623 0.252442 0.252274 0.252105 0.251934 0.251763 0.251592 0.251422 0.251269 0.251098 0.250918 0.250766 0.250586 0.250427 0.250261 0.250098 0.249935 0.249758 0.249609 0.249447 0.24928 0.249119 0.248952 0.248791 0.248643 0.248477 0.248317 0.248163 0.248002 0.247848 0.247694 0.247529 0.247364 0.247218 0.247062 0.246916 0.246754 0.246597 0.246454 0.246291 0.246143 0.245983 0.245837 0.245691 0.245535 0.245392 0.245239 0.245092 0.244943 0.244796 0.244649 0.2445 0.244355 0.244205 0.244069 0.243921 0.243774 0.243628 0.243486 0.24335 0.243207 0.243068 0.242918 0.242784 0.242641 0.242511 0.242361 0.24223 0.242091 0.241949 0.241814 0.241674 0.241544 0.241404 0.241274 0.241138 0.241006 0.240872 0.240739 0.240607 0.240477 0.240349 0.240219 0.240088 0.239959 0.239823 0.239698 0.239572 0.239445 0.239317 0.239194 0.239069 0.238938 0.238817 0.238692 0.238567 0.238442 0.238322 0.238197 0.238086 0.237959 0.237843 0.237721 0.23761 0.237491 0.237372 0.23725 0.237134 0.237016 0.236903 0.236791 0.236674 0.236555 0.236451 0.236338 0.23622 0.236114 0.236004 0.235887 0.235782 0.235674 0.235564 0.235457 0.235347 0.235243 0.235134 0.235029 0.234929 0.234819 0.234715 0.234611 0.234505 0.234404 0.234306 0.234203 0.234109 0.234007 0.233905 0.233806 0.233712 0.233614 0.233515 0.233415 0.23332 0.233228 0.233133 0.233039 0.232947 0.232854 0.232759 0.232671 0.232578 0.232489 0.232396 0.232312 0.232215 0.232137 0.232041 0.231961 0.231872 0.231788 0.231701 0.231616 0.231534 0.231444 0.231372 0.231286 0.231204 0.231121 0.231041 0.230966 0.230884 0.230807 0.230731 0.23065 0.230576 0.230496 0.23042 0.230344 0.230277 0.230206 0.230129 0.230057 0.22998 0.229907 0.229843 0.22977 0.229707 0.229634 0.229569 0.229498 0.229431 0.229368 0.229304 0.229239 0.229176 0.229111 0.229051 0.228989 0.228922 0.22886 0.228799 0.228745 0.228683 0.228627 0.228566 0.228514 0.228449 0.228397 0.228343 0.228283 0.228234 0.228179 0.228131 0.228075 0.228023 0.227976 0.227916 0.227868 0.227824 0.227777 0.227728 0.227679 0.227633 0.227589 0.227544 0.227497 0.227451 0.227417 0.227368 0.227327 0.227285 0.227246 0.227206 0.227163 0.227123 0.227092 0.227052 0.227011 0.226979 0.22694 0.226902 0.226874 0.226837 0.226804 0.226773 0.22674 0.226707 0.226677 0.22665 0.226622 0.226593 0.226565 0.226535 0.226508 0.226481 0.226457 0.226435 0.226414 0.22639 0.22637 0.22634 0.226322 0.226299 0.226276 0.226253 0.226239 0.226226 0.226203 0.226187 0.226174 0.226157 0.226138 0.226128 0.226108 0.226097 0.226086 0.226073 0.226065 0.226055 0.226043 0.22604 0.226029 0.226019 0.226014 0.226007 0.226001 0.225994 0.225992 0.225984 0.225979 0.225982 0.225979 0.225981 0.225977 0.225977 0.22598 0.225976 0.22598 0.225983 0.225985 0.225991 0.225993 0.226002 0.226005 0.226013 0.22602 0.226027 0.226039 0.226041 0.226054 0.226063 0.226078 0.226086 0.226101 0.226113 0.226129 0.226143 0.22615 0.226171 0.226192 0.226206 0.226224 0.22624 0.226257 0.226273 0.226297 0.226322 0.226337 0.226363 0.226389 0.226405 0.22643 0.226459 0.226486 0.226507 0.226533 0.226559 0.226594 0.22662 0.226644 0.226677 0.226711 0.226738 0.226771 0.226802 0.22684 0.226875 0.22691 0.226941 0.226974 0.227013 0.227051 0.227087 0.227123 0.227164 0.227203 0.227246 0.227285 0.227326 0.227362 0.227407 0.227449 0.227493 0.22754 0.227591 0.227635 0.227679 0.227726 0.227775 0.227825 0.227872 0.227921 0.227977 0.22802 0.228073 0.22813 0.228179 0.228231 0.22829 0.228342 0.2284 0.228452 0.228514 0.228566 0.228629 0.228685 0.228741 0.228801 0.228864 0.228922 0.228983 0.229049 0.229113 0.229178 0.229235 0.229306 0.229366 0.229432 0.229501 0.229565 0.229636 0.22971 0.229777 0.229846 0.229912 0.22998 0.230054 0.230126 0.230205 0.230269 0.230349 0.230425 0.2305 0.230569 0.23065 0.230728 0.230806 0.230883 0.230965 0.23104 0.231125 0.2312 0.231282 0.231372 0.231449 0.231531 0.231615 0.2317 0.231789 0.23187 0.231956 0.232042 0.232131 0.232218 0.232308 0.2324 0.232489 0.232577 0.232663 0.232758 0.232854 0.232943 0.233039 0.233136 0.233223 0.233323 0.233418 0.233518 0.233613 0.233708 0.233807 0.233904 0.234011 0.234104 0.234202 0.234306 0.234407 0.234513 0.234607 0.234719 0.23482 0.234926 0.235035 0.235134 0.235244 0.23535 0.23545 0.235561 0.235675 0.235786 0.235892 0.235998 0.236111 0.236224 0.23634 0.236446 0.236562 0.236674 0.236786 0.236911 0.237018 0.237135 0.237248 0.237369 0.237488 0.237599 0.237727 0.237841 0.237961 0.23808 0.238203 0.238327 0.238449 0.238568 0.238691 0.238818 0.23894 0.239066 0.239193 0.239317 0.239445 0.239572 0.239694 0.239829 0.239955 0.240084 0.240212 0.24035 0.240476 0.240608 0.240739 0.240866 0.241002 0.241142 0.241275 0.241405 0.24154 0.24167 0.241808 0.241952 0.242087 0.242228 0.242365 0.242504 0.24264 0.242778 0.242917 0.243057 0.243203 0.243348 0.24349 0.243635 0.243775 0.243922 0.244064 0.244206 0.244358 0.244498 0.244656 0.244796 0.244947 0.245087 0.245235 0.245388 0.245534 0.245681 0.245843 0.245994 0.246147 0.246295 0.246448 0.246605 0.246757 0.246904 0.247064 0.247216 0.247383 0.247535 0.247687 0.247839 0.247997 0.248159 0.248318 0.248474 0.248637 0.24879 0.248958 0.249118 0.249282 0.249442 0.249608 0.249772 0.24993 0.250098 0.250252 0.25043 0.250591 0.25076 0.250921 0.251087 0.251261 0.251425 0.251592 0.25176 0.251932 0.252104 0.25227 0.25245 0.25262 0.252788 0.252957 0.253128 0.253304 0.25348 0.253652 0.253825 0.254007 0.254176 0.254352 0.25453 0.2547 0.254877 0.25506 0.255233 0.25542 0.2556 0.255772 0.255955 0.256127 0.256321 0.25649 0.256682 0.256854 0.257036
0.257156 0.256968 0.256792 0.256612 0.25643 0.256248 0.256074 0.255896 0.255708 0.255531 0.255355 0.255184 0.254993 0.254824 0.254639 0.254469 0.254294 0.254115 0.253939 0.253762 0.253593 0.25342 0.253252 0.253081 0.252895 0.252733 0.252559 0.252391 0.252217 0.252051 0.25189 0.251709 0.251543 0.251381 0.251202 0.251036 0.250882 0.250702 0.250543 0.250381 0.250228 0.250055 0.249887 0.249723 0.249554 0.249401 0.249239 0.249079 0.248921 0.248764 0.248602 0.24844 0.248279 0.24812 0.247965 0.247805 0.247644 0.247499 0.247345 0.24718 0.247032 0.246878 0.246715 0.246564 0.246414 0.246267 0.246111 0.245961 0.245809 0.245653 0.245504 0.245358 0.245208 0.245065 0.244916 0.24477 0.244625 0.244477 0.24433 0.244183 0.244038 0.243895 0.243758 0.243608 0.24347 0.243319 0.243191 0.243041 0.242904 0.24277 0.242621 0.242491 0.242346 0.242211 0.24207 0.241939 0.241797 0.241658 0.241528 0.241395 0.241259 0.241132 0.240999 0.240866 0.240729 0.240597 0.240464 0.240331 0.240213 0.24008 0.23995 0.239828 0.239695 0.239566 0.23944 0.239313 0.23919 0.239064 0.238937 0.238816 0.238694 0.238576 0.238453 0.238322 0.238207 0.238081 0.237967 0.237854 0.23773 0.237607 0.237495 0.237374 0.237259 0.237149 0.237029 0.236914 0.236797 0.236678 0.236574 0.236459 0.236349 0.236239 0.236123 0.236016 0.235906 0.235792 0.235694 0.235583 0.23547 0.235366 0.235259 0.235156 0.23505 0.234945 0.234843 0.234744 0.234633 0.234533 0.234431 0.234331 0.234232 0.234131 0.234028 0.233932 0.233835 0.233739 0.233638 0.233541 0.23345 0.233357 0.233262 0.233168 0.233069 0.23298 0.232886 0.232795 0.232707 0.232613 0.232524 0.232433 0.232348 0.232259 0.232169 0.232087 0.231995 0.231914 0.231827 0.231742 0.231665 0.231578 0.231492 0.231415 0.231337 0.231244 0.23117 0.231089 0.231009 0.230934 0.230856 0.230782 0.2307 0.230627 0.230553 0.230476 0.230401 0.230333 0.230256 0.230189 0.230109 0.230047 0.229978 0.229902 0.229834 0.229766 0.229695 0.229625 0.229566 0.229498 0.229436 0.229366 0.229302 0.229236 0.229179 0.229111 0.229053 0.228991 0.228931 0.228874 0.228811 0.228757 0.228697 0.228636 0.228581 0.228524 0.228472 0.228418 0.228366 0.22831 0.228254 0.228205 0.228153 0.228106 0.228051 0.228008 0.227951 0.227902 0.227855 0.227814 0.227765 0.227713 0.227678 0.227628 0.227581 0.227538 0.227498 0.227456 0.227415 0.227372 0.227335 0.227294 0.227256 0.227215 0.227174 0.227142 0.227106 0.227071 0.227035 0.227005 0.226969 0.226934 0.226898 0.226873 0.226843 0.226809 0.226781 0.22675 0.226722 0.226693 0.226667 0.226641 0.22661 0.22659 0.226567 0.226539 0.226516 0.226496 0.226473 0.226449 0.226425 0.226408 0.226388 0.226367 0.226353 0.226333 0.22632 0.226307 0.226288 0.226273 0.226257 0.226242 0.226231 0.226221 0.22621 0.226198 0.226182 0.226172 0.226169 0.226158 0.226149 0.226142 0.226135 0.226129 0.226121 0.226119 0.226118 0.226117 0.226114 0.22611 0.226109 0.226105 0.226107 0.226107 0.226109 0.226115 0.226115 0.226118 0.226118 0.226121 0.226129 0.22614 0.226143 0.226155 0.226162 0.226169 0.226172 0.226187 0.226198 0.226207 0.22622 0.22623 0.226242 0.226261 0.226273 0.22629 0.2263 0.226317 0.226337 0.226353 0.226373 0.226387 0.22641 0.226429 0.226453 0.226472 0.226493 0.226517 0.226537 0.226562 0.226587 0.226612 0.226637 0.226666 0.226694 0.226722 0.226748 0.226778 0.22681 0.226842 0.226872 0.2269 0.226933 0.226969 0.226997 0.227036 0.227073 0.227107 0.227144 0.227176 0.227215 0.227254 0.227291 0.227335 0.227372 0.227418 0.227458 0.227494 0.227541 0.227584 0.227628 0.227671 0.227716 0.227762 0.227808 0.227859 0.227903 0.227948 0.228003 0.228051 0.228099 0.22815 0.228205 0.228251 0.228309 0.228366 0.228411 0.228472 0.228529 0.228586 0.228643 0.228693 0.228755 0.22881 0.22887 0.228929 0.228992 0.229054 0.229112 0.229178 0.229238 0.229304 0.22937 0.229435 0.229496 0.229564 0.229626 0.229695 0.229761 0.229834 0.2299 0.229972 0.230046 0.230113 0.230187 0.230263 0.23033 0.230404 0.230478 0.23055 0.230628 0.230705 0.230778 0.230856 0.230934 0.231006 0.231091 0.231169 0.231249 0.23133 0.231408 0.231491 0.23157 0.231661 0.23175 0.231828 0.231908 0.231998 0.232085 0.232174 0.232262 0.232348 0.232435 0.232529 0.232608 0.232702 0.232796 0.232888 0.232979 0.233073 0.233164 0.233255 0.233353 0.233449 0.233546 0.23364 0.233737 0.233836 0.233932 0.234028 0.234129 0.234228 0.234325 0.234428 0.234532 0.234632 0.234733 0.234838 0.234945 0.235051 0.235152 0.235259 0.235367 0.235471 0.235584 0.235688 0.235798 0.235913 0.236018 0.236127 0.236235 0.236348 0.236458 0.236575 0.236686 0.236805 0.236914 0.237032 0.237146 0.23726 0.237372 0.237494 0.237603 0.237733 0.237848 0.237963 0.238092 0.238209 0.23833 0.238452 0.238567 0.238694 0.238811 0.238942 0.239058 0.239185 0.239319 0.239442 0.239567 0.239701 0.23982 0.239951 0.240082 0.240205 0.240336 0.240469 0.2406 0.240732 0.240863 0.240996 0.241124 0.241259 0.241393 0.241525 0.241668 0.241796 0.241936 0.242076 0.24221 0.242347 0.242487 0.242622 0.242766 0.242907 0.243046 0.243191 0.243332 0.243464 0.243613 0.243757 0.243898 0.244044 0.244188 0.244337 0.244481 0.244625 0.244769 0.24491 0.245064 0.245208 0.245356 0.245506 0.245656 0.245806 0.245963 0.246105 0.246261 0.246415 0.246562 0.246717 0.246877 0.247027 0.247177 0.247342 0.247489 0.247648 0.247809 0.247966 0.24812 0.248274 0.248433 0.248596 0.248759 0.248919 0.249081 0.249234 0.249399 0.249567 0.249728 0.249894 0.250049 0.250212 0.250378 0.250546 0.250707 0.25088 0.251042 0.251212 0.25138 0.251543 0.251705 0.251877 0.252047 0.252225 0.25239 0.252552 0.252733 0.252901 0.253074 0.253247 0.25342 0.253598 0.253765 0.253934 0.254113 0.254287 0.254469 0.254643 0.254825 0.254991 0.255176 0.255356 0.255522 0.255707 0.255896 0.256059 0.256252 0.256427 0.25661 0.256795 0.25697 0.257159
0.257271 0.257098 0.256905 0.256733 0.256553 0.256368 0.256185 0.256003 0.255825 0.255648 0.255469 0.25529 0.255114 0.254935 0.254759 0.254584 0.254409 0.254236 0.254062 0.253888 0.253709 0.253529 0.253363 0.253193 0.253025 0.252852 0.252684 0.252509 0.252337 0.25217 0.252 0.251832 0.251663 0.251492 0.251328 0.251161 0.250994 0.250829 0.250672 0.250494 0.250326 0.250168 0.250007 0.249851 0.24968 0.249524 0.249368 0.249196 0.249039 0.248876 0.248717 0.24856 0.248396 0.248239 0.248089 0.24793 0.247769 0.247613 0.247459 0.247301 0.247155 0.247002 0.24684 0.246693 0.246536 0.246384 0.246231 0.246081 0.245933 0.245782 0.245625 0.245484 0.245331 0.245185 0.245033 0.244888 0.244744 0.244598 0.244453 0.244303 0.244164 0.244021 0.243879 0.243731 0.243596 0.243444 0.243307 0.243161 0.243028 0.242881 0.242745 0.24261 0.242465 0.242336 0.2422 0.242059 0.241923 0.241789 0.241653 0.241518 0.241382 0.241255 0.241114 0.240982 0.240856 0.240721 0.240592 0.24046 0.24033 0.240199 0.240076 0.239952 0.239816 0.239691 0.239564 0.239446 0.239314 0.239183 0.239063 0.238935 0.23882 0.238699 0.238576 0.238452 0.238329 0.238216 0.238091 0.237974 0.237856 0.237732 0.237619 0.237505 0.237385 0.237268 0.237153 0.237044 0.236922 0.236812 0.236699 0.236589 0.23648 0.236364 0.236252 0.236149 0.236031 0.235925 0.235813 0.235699 0.235598 0.235488 0.235389 0.235286 0.235172 0.23507 0.234968 0.234868 0.234765 0.234659 0.234556 0.234459 0.234358 0.234257 0.234159 0.234062 0.233969 0.233863 0.233766 0.233669 0.233572 0.233482 0.23339 0.233293 0.233199 0.233104 0.233011 0.232922 0.232831 0.232744 0.23265 0.232561 0.232471 0.232385 0.232298 0.232218 0.232126 0.232041 0.231957 0.23187 0.231784 0.231707 0.231622 0.231544 0.231458 0.231384 0.231297 0.231219 0.231141 0.231066 0.230984 0.230908 0.230833 0.230755 0.230679 0.23061 0.230531 0.230458 0.230384 0.230313 0.230245 0.23017 0.230098 0.230025 0.229957 0.229893 0.229826 0.229763 0.229695 0.229624 0.229556 0.229496 0.22943 0.229371 0.229309 0.229245 0.229182 0.22912 0.229064 0.229002 0.228943 0.228878 0.228825 0.228768 0.228712 0.228655 0.228601 0.228546 0.228489 0.228438 0.228388 0.228334 0.228282 0.228238 0.228181 0.228129 0.228079 0.228035 0.227991 0.227944 0.227895 0.227845 0.227805 0.22776 0.227711 0.227673 0.227631 0.227586 0.227545 0.227504 0.227462 0.227423 0.227387 0.227346 0.22731 0.22727 0.227236 0.227201 0.227167 0.22713 0.227098 0.227061 0.227036 0.227003 0.226973 0.226936 0.226906 0.226882 0.22685 0.226828 0.226794 0.226772 0.226745 0.226716 0.226697 0.226675 0.226649 0.226629 0.226604 0.226579 0.226559 0.226544 0.226523 0.226501 0.226483 0.226468 0.226448 0.226429 0.226419 0.226405 0.226389 0.226377 0.226361 0.226348 0.226338 0.226324 0.226316 0.226304 0.2263 0.226287 0.226282 0.226276 0.226267 0.226259 0.226255 0.22625 0.226249 0.226246 0.226242 0.226242 0.226237 0.226237 0.226234 0.226242 0.226241 0.226239 0.226248 0.226253 0.226253 0.226257 0.226262 0.226268 0.226273 0.226283 0.226292 0.226301 0.226308 0.226316 0.226323 0.226336 0.226347 0.226363 0.226372 0.226395 0.226405 0.226419 0.226436 0.226448 0.226469 0.226485 0.226499 0.226521 0.226542 0.226558 0.226582 0.226597 0.226623 0.226648 0.226672 0.226699 0.226721 0.226741 0.226775 0.226798 0.226826 0.226853 0.226881 0.22691 0.226939 0.226975 0.227001 0.227031 0.227064 0.2271 0.227132 0.227166 0.227202 0.227238 0.227273 0.227306 0.227349 0.227382 0.227423 0.227463 0.227502 0.227543 0.227587 0.227628 0.227674 0.227717 0.227759 0.2278 0.227847 0.227893 0.227939 0.227988 0.228036 0.228085 0.228132 0.22818 0.228231 0.228281 0.228335 0.228383 0.228441 0.228493 0.228545 0.228604 0.228658 0.228716 0.22877 0.228825 0.228886 0.228939 0.229003 0.229053 0.229125 0.229184 0.229246 0.229305 0.22937 0.229429 0.229498 0.229561 0.229627 0.229694 0.22976 0.229828 0.229902 0.229959 0.23003 0.230097 0.230173 0.230243 0.230318 0.230389 0.230456 0.230526 0.230604 0.230683 0.23076 0.230833 0.230907 0.230976 0.231061 0.231138 0.231216 0.231299 0.231379 0.231454 0.23154 0.231622 0.231704 0.231787 0.231873 0.231954 0.232039 0.232127 0.232213 0.232302 0.232384 0.232475 0.232563 0.232653 0.232745 0.23283 0.232927 0.233011 0.233104 0.233203 0.233295 0.233388 0.233481 0.233576 0.233672 0.233768 0.233863 0.233963 0.234052 0.234155 0.234261 0.234358 0.234454 0.234558 0.234661 0.234761 0.234865 0.234968 0.235073 0.235174 0.235275 0.235382 0.235492 0.235601 0.235708 0.235808 0.235931 0.236035 0.236138 0.236257 0.236357 0.236474 0.236581 0.236699 0.236814 0.236926 0.237038 0.237148 0.237265 0.237385 0.237499 0.237623 0.237739 0.237854 0.237974 0.238088 0.238209 0.238332 0.238458 0.23857 0.238693 0.238817 0.238937 0.239067 0.239193 0.239321 0.239447 0.239562 0.239694 0.239823 0.239944 0.240072 0.240201 0.240336 0.240463 0.240587 0.24072 0.240852 0.240985 0.241114 0.241253 0.241389 0.241514 0.24165 0.241789 0.241919 0.24206 0.242197 0.242334 0.242469 0.242601 0.242749 0.242892 0.243018 0.243168 0.243309 0.243442 0.243591 0.243727 0.243877 0.244016 0.244159 0.244303 0.244453 0.244598 0.244747 0.244889 0.245037 0.245184 0.245325 0.245478 0.245632 0.245781 0.245933 0.246076 0.246229 0.246388 0.246533 0.246688 0.246837 0.246992 0.247147 0.247299 0.247452 0.247616 0.247775 0.247932 0.248084 0.248237 0.248405 0.248559 0.248721 0.248879 0.249035 0.249194 0.249366 0.249517 0.24969 0.249845 0.250011 0.25017 0.250335 0.2505 0.250662 0.250829 0.250996 0.251157 0.251328 0.2515 0.251656 0.251838 0.252001 0.25217 0.252338 0.252504 0.252681 0.252849 0.253015 0.253196 0.253363 0.253539 0.253719 0.253886 0.254055 0.254237 0.254407 0.254586 0.254762 0.254936 0.255115 0.25529 0.255471 0.255647 0.255821 0.256003 0.256177 0.256365 0.256548 0.256727 0.256912 0.257087 0.257266
0.257387 0.257213 0.257028 0.256844 0.256664 0.256486 0.2563 0.256119 0.255937 0.255766 0.25558 0.255416 0.255236 0.255057 0.254879 0.254705 0.254534 0.25435 0.254175 0.254005 0.253826 0.253652 0.253475 0.253307 0.253135 0.252967 0.252796 0.252627 0.252456 0.252279 0.252119 0.251949 0.251783 0.251612 0.251447 0.251283 0.251114 0.250944 0.25078 0.250609 0.250461 0.250291 0.250128 0.24997 0.249802 0.249643 0.249481 0.24932 0.249161 0.248997 0.248836 0.248678 0.248517 0.248363 0.248207 0.248041 0.247893 0.247731 0.247583 0.247426 0.247265 0.247116 0.24696 0.246809 0.246659 0.246508 0.246361 0.2462 0.246051 0.245897 0.245747 0.245602 0.245458 0.245309 0.245158 0.245014 0.244873 0.244718 0.244575 0.244431 0.244289 0.244142 0.243999 0.243858 0.243713 0.243571 0.243425 0.24329 0.24315 0.243011 0.242868 0.242729 0.242593 0.242453 0.242311 0.242185 0.242055 0.241905 0.24178 0.241638 0.241511 0.241373 0.24124 0.241112 0.240973 0.240847 0.240712 0.240588 0.240464 0.240324 0.240199 0.240068 0.239938 0.239812 0.239687 0.239564 0.23944 0.239313 0.239192 0.239068 0.238948 0.23882 0.238698 0.238584 0.238456 0.238337 0.238219 0.2381 0.237977 0.237864 0.237743 0.23763 0.237508 0.23739 0.237278 0.237165 0.237048 0.236941 0.236824 0.236714 0.2366 0.236487 0.236378 0.236272 0.236159 0.236045 0.235939 0.235836 0.235727 0.235627 0.235514 0.235412 0.235305 0.235199 0.235097 0.234991 0.23489 0.234792 0.234682 0.234586 0.234488 0.234381 0.234287 0.234189 0.234089 0.233997 0.233896 0.233799 0.233707 0.233612 0.233516 0.233423 0.233327 0.233232 0.233142 0.233052 0.232959 0.232874 0.232784 0.232692 0.232602 0.232516 0.232424 0.232342 0.232254 0.232173 0.232088 0.231999 0.231921 0.231836 0.231745 0.231676 0.231585 0.231504 0.231429 0.231354 0.231272 0.231194 0.231116 0.231038 0.230963 0.230884 0.230805 0.230738 0.230663 0.230585 0.230516 0.230439 0.230366 0.230304 0.23023 0.23016 0.230091 0.23003 0.229958 0.229887 0.229822 0.229754 0.229687 0.229624 0.229559 0.229502 0.229437 0.229376 0.229311 0.229254 0.229187 0.229131 0.229074 0.229013 0.228952 0.228898 0.228845 0.228785 0.22873 0.228674 0.228625 0.228572 0.22852 0.228468 0.228415 0.228358 0.228311 0.228264 0.228213 0.228169 0.228122 0.228071 0.228022 0.227976 0.227935 0.22789 0.227847 0.2278 0.22776 0.227714 0.227675 0.227636 0.227592 0.227552 0.227519 0.227479 0.227437 0.227402 0.227368 0.22733 0.227297 0.227261 0.227229 0.227198 0.227169 0.227133 0.227101 0.227072 0.227039 0.227015 0.22698 0.226957 0.226931 0.226904 0.226879 0.226851 0.226826 0.226806 0.226775 0.226758 0.226737 0.226712 0.22669 0.226671 0.22665 0.226635 0.226617 0.226597 0.226583 0.226567 0.226548 0.226532 0.226517 0.226506 0.226493 0.226484 0.226472 0.226466 0.226446 0.226443 0.226424 0.226417 0.226413 0.226407 0.2264 0.226394 0.226391 0.226384 0.226382 0.226379 0.226377 0.22637 0.22637 0.22637 0.22637 0.22637 0.226376 0.226374 0.22638 0.226381 0.226383 0.226387 0.226394 0.226399 0.226408 0.226415 0.226421 0.226429 0.226438 0.226451 0.22646 0.226468 0.226484 0.226494 0.226503 0.226522 0.226532 0.226548 0.226569 0.226582 0.226601 0.226617 0.226635 0.22665 0.226666 0.22669 0.226713 0.226734 0.226757 0.226781 0.226803 0.226829 0.226855 0.226876 0.226907 0.226929 0.226957 0.22698 0.227018 0.227038 0.227069 0.227099 0.227134 0.227161 0.227194 0.227231 0.227262 0.227301 0.227333 0.227374 0.227402 0.227441 0.227479 0.227519 0.227554 0.227597 0.227635 0.227671 0.227717 0.22776 0.227801 0.227848 0.227891 0.227932 0.227979 0.228024 0.228069 0.228118 0.228162 0.228213 0.228263 0.228313 0.228362 0.228414 0.228469 0.228515 0.228568 0.228627 0.22868 0.228732 0.228785 0.228838 0.228896 0.228958 0.229013 0.229069 0.22913 0.229188 0.229252 0.229313 0.229376 0.229436 0.2295 0.229565 0.229627 0.229686 0.229762 0.229822 0.229892 0.229958 0.230021 0.23009 0.23016 0.230229 0.230302 0.230374 0.230441 0.230519 0.230586 0.230663 0.230729 0.230803 0.230891 0.230966 0.231037 0.231116 0.231193 0.231269 0.231349 0.231424 0.231507 0.23159 0.231671 0.231751 0.231835 0.231917 0.231999 0.232084 0.232164 0.232258 0.232345 0.232429 0.232519 0.232602 0.232694 0.23278 0.232869 0.232957 0.233048 0.233138 0.233234 0.233324 0.233422 0.233518 0.233607 0.233702 0.233804 0.233899 0.233991 0.234092 0.234186 0.23429 0.234383 0.234486 0.234585 0.234682 0.234784 0.234888 0.234992 0.235093 0.235201 0.2353 0.235404 0.235519 0.235618 0.235726 0.235833 0.235944 0.236052 0.236159 0.236273 0.236378 0.236485 0.236602 0.236711 0.236822 0.236933 0.237051 0.237168 0.237277 0.237394 0.237501 0.237629 0.237742 0.237865 0.237985 0.238095 0.238221 0.238333 0.238457 0.238573 0.238702 0.238815 0.238946 0.239066 0.239193 0.239313 0.239439 0.239558 0.239682 0.239815 0.23994 0.240067 0.240197 0.240326 0.240456 0.240582 0.240719 0.240845 0.240978 0.241111 0.241237 0.24137 0.241513 0.241639 0.241776 0.241908 0.242045 0.242183 0.242317 0.242454 0.242593 0.24273 0.242871 0.243014 0.243151 0.243292 0.243427 0.24357 0.243713 0.24385 0.244 0.244137 0.244285 0.244432 0.244571 0.244723 0.244871 0.245009 0.245153 0.245304 0.245453 0.245602 0.245764 0.245907 0.246053 0.246203 0.24635 0.246504 0.246653 0.246799 0.246958 0.247119 0.247273 0.247421 0.247574 0.247732 0.247891 0.248045 0.2482 0.248358 0.248522 0.248675 0.248844 0.248991 0.249161 0.249318 0.249477 0.249641 0.249794 0.249962 0.250126 0.25029 0.250452 0.250627 0.250787 0.25095 0.251112 0.251279 0.251445 0.251616 0.251787 0.251953 0.252117 0.252282 0.252455 0.252624 0.252795 0.252971 0.253136 0.25331 0.253487 0.253653 0.253829 0.254006 0.254176 0.254353 0.254528 0.254697 0.254875 0.255053 0.255227 0.255408 0.255582 0.255765 0.255937 0.256111 0.256308 0.256483 0.256664 0.256845 0.257021 0.257202 0.257388
0.257503 0.257319 0.257143 0.256965 0.256782 0.256605 0.256414 0.256235 0.25606 0.255887 0.255703 0.25552 0.255348 0.255164 0.254992 0.254812 0.25464 0.254472 0.254298 0.254123 0.253949 0.25377 0.253597 0.253428 0.253262 0.253091 0.25291 0.252748 0.252578 0.252398 0.252241 0.252067 0.251901 0.251732 0.25156 0.251401 0.251229 0.251063 0.250906 0.250743 0.250572 0.250407 0.250245 0.25008 0.24992 0.24976 0.249594 0.249439 0.249281 0.249119 0.248956 0.248798 0.248636 0.248485 0.248328 0.248172 0.248008 0.247858 0.247705 0.247551 0.247391 0.247236 0.247084 0.246928 0.246781 0.246623 0.246477 0.24632 0.246174 0.246025 0.24588 0.245723 0.245582 0.245429 0.245286 0.245135 0.244983 0.244844 0.244697 0.244551 0.244408 0.244263 0.244122 0.243981 0.243836 0.243696 0.243552 0.243415 0.243276 0.243132 0.242991 0.242855 0.242722 0.24258 0.24244 0.242302 0.24217 0.242028 0.241902 0.241763 0.241635 0.241501 0.24136 0.241232 0.241107 0.240971 0.240847 0.24071 0.240585 0.240455 0.240321 0.240192 0.240062 0.239942 0.239815 0.239687 0.239565 0.239436 0.239309 0.239197 0.239071 0.238949 0.238828 0.238703 0.238586 0.23847 0.238343 0.238225 0.238103 0.237989 0.237873 0.237745 0.237634 0.237518 0.23741 0.23729 0.23718 0.237064 0.23695 0.236835 0.236726 0.236619 0.23651 0.236396 0.236287 0.236176 0.236069 0.235962 0.235854 0.235745 0.235639 0.235538 0.235427 0.235326 0.235225 0.235121 0.235018 0.234913 0.234813 0.234712 0.234615 0.234518 0.234415 0.234312 0.234217 0.234119 0.234027 0.233933 0.233833 0.233735 0.233638 0.233544 0.23346 0.233361 0.233272 0.233182 0.233092 0.232999 0.232908 0.23282 0.232728 0.232645 0.23256 0.232475 0.232382 0.232297 0.232211 0.232128 0.232042 0.231964 0.231881 0.231797 0.231711 0.231642 0.231564 0.231477 0.231397 0.231318 0.231244 0.231174 0.231093 0.231012 0.230939 0.23086 0.230792 0.230716 0.230646 0.230576 0.230499 0.23043 0.23036 0.230294 0.230219 0.230159 0.230083 0.230017 0.229946 0.229891 0.229823 0.229756 0.229691 0.229629 0.229567 0.229505 0.229443 0.229378 0.229319 0.229265 0.229209 0.229144 0.22909 0.229025 0.228975 0.228917 0.228865 0.228812 0.228754 0.228699 0.228646 0.228595 0.228543 0.228495 0.228445 0.228395 0.228342 0.2283 0.228248 0.2282 0.228151 0.22811 0.228063 0.228018 0.227976 0.227933 0.227893 0.227853 0.227806 0.227766 0.227725 0.22769 0.227645 0.227611 0.227575 0.227538 0.2275 0.227467 0.227427 0.227395 0.227361 0.227328 0.227294 0.227264 0.227235 0.227204 0.227176 0.227144 0.227114 0.22709 0.22706 0.227032 0.227006 0.226981 0.226962 0.22693 0.226915 0.226892 0.226864 0.226846 0.226821 0.2268 0.226785 0.226769 0.226748 0.226731 0.226711 0.226696 0.226683 0.226665 0.226651 0.226643 0.226623 0.226613 0.226604 0.22659 0.22658 0.226572 0.226561 0.226557 0.226545 0.226537 0.226533 0.226526 0.226524 0.226515 0.226514 0.226507 0.22651 0.226499 0.226505 0.226502 0.226504 0.226506 0.226504 0.226507 0.226506 0.226517 0.226518 0.226526 0.22653 0.226529 0.226536 0.226544 0.226548 0.226562 0.226572 0.226582 0.226594 0.2266 0.226612 0.226628 0.226638 0.226655 0.226666 0.226678 0.2267 0.226717 0.22673 0.226749 0.226768 0.226785 0.226805 0.226824 0.226843 0.226864 0.226891 0.226909 0.226937 0.226959 0.226984 0.227007 0.227034 0.227061 0.227086 0.227117 0.227148 0.227176 0.227197 0.227235 0.227262 0.227298 0.227329 0.227361 0.227397 0.227428 0.227465 0.227506 0.227533 0.227575 0.227608 0.227653 0.22769 0.227721 0.227764 0.227808 0.227847 0.227892 0.227936 0.227974 0.228019 0.22807 0.22811 0.228162 0.228199 0.228245 0.228295 0.228346 0.228395 0.228443 0.228493 0.228545 0.228596 0.228649 0.228702 0.228755 0.228805 0.228863 0.228917 0.22897 0.229029 0.229089 0.229144 0.229206 0.22926 0.229324 0.229383 0.229444 0.229507 0.229565 0.22963 0.229693 0.229755 0.229822 0.229886 0.229954 0.230023 0.23008 0.230153 0.230225 0.230291 0.230363 0.230428 0.230506 0.230574 0.230645 0.230711 0.230791 0.230861 0.23094 0.231016 0.23109 0.231161 0.231241 0.231322 0.231396 0.231475 0.23156 0.231635 0.231714 0.231802 0.231875 0.231965 0.232043 0.232131 0.232215 0.232297 0.232386 0.232462 0.232556 0.232642 0.232728 0.232822 0.232909 0.232998 0.233091 0.233175 0.233271 0.23337 0.233451 0.233545 0.233647 0.23374 0.233832 0.233932 0.234021 0.234113 0.23422 0.234318 0.234414 0.234521 0.234616 0.234707 0.234811 0.234909 0.235021 0.23512 0.235225 0.235329 0.235426 0.235538 0.235646 0.235746 0.235849 0.23596 0.236065 0.236174 0.236279 0.236397 0.236502 0.236618 0.236722 0.236837 0.236948 0.237063 0.23718 0.237289 0.237412 0.237521 0.23764 0.237757 0.237875 0.237981 0.238107 0.238223 0.238342 0.238463 0.238579 0.238702 0.238824 0.238945 0.239065 0.239186 0.239314 0.239445 0.239565 0.239689 0.239817 0.239943 0.240061 0.240198 0.240322 0.240451 0.240581 0.240712 0.240842 0.240968 0.241102 0.24123 0.241368 0.241503 0.241634 0.241765 0.241907 0.242036 0.242169 0.242306 0.242441 0.242584 0.242719 0.242854 0.242997 0.243135 0.243275 0.243414 0.243552 0.243698 0.243836 0.243978 0.24412 0.244265 0.244405 0.244552 0.244699 0.244844 0.244991 0.245132 0.245284 0.245423 0.245579 0.245726 0.245875 0.246024 0.246172 0.24632 0.246473 0.246626 0.246782 0.246929 0.247079 0.247242 0.247387 0.247543 0.247697 0.247852 0.248008 0.248165 0.248327 0.24848 0.248632 0.248797 0.248957 0.249113 0.249278 0.249432 0.249597 0.249754 0.249918 0.250077 0.250243 0.250407 0.250573 0.250738 0.250903 0.251063 0.251226 0.251397 0.251565 0.251728 0.251907 0.252063 0.252236 0.252407 0.252573 0.252752 0.25291 0.253082 0.253255 0.253424 0.253602 0.253778 0.253944 0.254117 0.254291 0.254467 0.254646 0.254822 0.254995 0.255172 0.255354 0.25553 0.255697 0.255881 0.256057 0.256241 0.25642 0.256594 0.256778 0.256959 0.257146 0.257321 0.257499
0.25762 0.257441 0.257267 0.257073 0.256891 0.256715 0.256535 0.25636 0.256171 0.256003 0.255822 0.25564 0.255472 0.255287 0.25511 0.254937 0.25476 0.254594 0.25441 0.254241 0.254062 0.253891 0.253717 0.253547 0.253375 0.253199 0.253042 0.252869 0.252693 0.252524 0.252359 0.252185 0.25202 0.251846 0.251681 0.251518 0.251355 0.251179 0.25102 0.250855 0.250698 0.250529 0.25037 0.250213 0.250043 0.249875 0.249729 0.249556 0.249402 0.249229 0.249084 0.24892 0.248766 0.248605 0.248442 0.248289 0.248126 0.24797 0.247827 0.247664 0.247505 0.247359 0.247202 0.247052 0.246899 0.246754 0.246602 0.246448 0.246295 0.246144 0.245998 0.24585 0.245703 0.245547 0.245406 0.245261 0.245108 0.244966 0.244814 0.244675 0.244528 0.244385 0.244244 0.2441 0.243965 0.24382 0.243676 0.243532 0.243402 0.243254 0.243118 0.242972 0.242842 0.242709 0.242564 0.24243 0.242291 0.242161 0.242026 0.241891 0.241762 0.241622 0.241487 0.241359 0.241226 0.241099 0.240967 0.240834 0.240705 0.240577 0.240451 0.24032 0.240196 0.240066 0.239943 0.23982 0.239692 0.239566 0.239439 0.239311 0.239193 0.239076 0.23895 0.238827 0.238704 0.238585 0.238471 0.238349 0.238235 0.238121 0.237995 0.237876 0.237764 0.237649 0.237538 0.237421 0.237308 0.237191 0.237077 0.23696 0.236847 0.236748 0.236639 0.236526 0.236415 0.236308 0.2362 0.236093 0.235986 0.235871 0.235766 0.23566 0.23556 0.235454 0.235354 0.235246 0.235145 0.23504 0.234942 0.234841 0.234745 0.23464 0.234542 0.234444 0.234345 0.234251 0.234151 0.234058 0.233959 0.233867 0.233771 0.23368 0.233585 0.233496 0.2334 0.233305 0.233211 0.23313 0.233041 0.232945 0.232865 0.232773 0.232688 0.232597 0.232512 0.232427 0.232339 0.23226 0.232175 0.232098 0.232008 0.231928 0.231849 0.231762 0.231686 0.23161 0.231529 0.231452 0.231376 0.231301 0.23122 0.231144 0.231069 0.230994 0.230917 0.230846 0.230777 0.230702 0.230637 0.230556 0.230495 0.23042 0.230354 0.230289 0.230218 0.230144 0.230085 0.230014 0.22995 0.229887 0.229823 0.229765 0.229697 0.229633 0.229575 0.229505 0.229452 0.229397 0.229333 0.22928 0.229219 0.229159 0.229107 0.229046 0.228993 0.228941 0.228893 0.228832 0.228781 0.228728 0.228673 0.228623 0.228572 0.228527 0.228481 0.22843 0.22838 0.228336 0.228284 0.228237 0.228198 0.228152 0.228111 0.228066 0.228028 0.227984 0.22794 0.227896 0.227857 0.227823 0.227783 0.227744 0.227704 0.22767 0.227633 0.227596 0.227561 0.227533 0.227494 0.22746 0.22743 0.227396 0.227366 0.22734 0.227307 0.227276 0.227251 0.227218 0.227194 0.227162 0.227137 0.227115 0.227089 0.227065 0.227047 0.22702 0.226996 0.226976 0.226958 0.22693 0.226922 0.226896 0.226878 0.226866 0.226848 0.226829 0.226818 0.2268 0.226786 0.226774 0.226759 0.226748 0.226733 0.226725 0.22671 0.226708 0.226696 0.226685 0.22668 0.226674 0.226665 0.226658 0.226647 0.226648 0.226649 0.226641 0.226639 0.226637 0.226638 0.226637 0.226635 0.226638 0.226635 0.226641 0.226647 0.226646 0.226648 0.226657 0.22666 0.226669 0.226676 0.226684 0.22669 0.226694 0.226708 0.226714 0.226726 0.226742 0.226748 0.226763 0.226776 0.226784 0.226799 0.226816 0.22683 0.226847 0.226861 0.22688 0.226898 0.226918 0.226935 0.226957 0.226978 0.227 0.227024 0.227045 0.227066 0.227091 0.227116 0.227143 0.227168 0.227197 0.227219 0.227247 0.227275 0.227308 0.227337 0.227362 0.227398 0.227429 0.227464 0.227496 0.227526 0.227561 0.227592 0.22763 0.227668 0.227707 0.227744 0.227778 0.227823 0.227862 0.227905 0.227942 0.227982 0.228023 0.228064 0.228111 0.228148 0.228197 0.22824 0.228288 0.228337 0.228383 0.228436 0.228477 0.228524 0.228577 0.228624 0.228673 0.228726 0.228779 0.228831 0.228884 0.228934 0.228993 0.22905 0.229105 0.229164 0.22922 0.229273 0.229338 0.22939 0.229453 0.229515 0.229574 0.229638 0.229697 0.22976 0.229821 0.229885 0.229952 0.230021 0.230078 0.230148 0.230216 0.230282 0.230351 0.230421 0.23049 0.230558 0.230633 0.230701 0.230771 0.230847 0.230924 0.230996 0.231068 0.231141 0.231222 0.231297 0.231376 0.231448 0.231533 0.231608 0.231687 0.231767 0.231845 0.23193 0.23201 0.232097 0.232181 0.232255 0.232341 0.23242 0.232513 0.232603 0.23269 0.232777 0.232861 0.232952 0.233031 0.23313 0.233218 0.23331 0.233406 0.23349 0.233589 0.23368 0.233768 0.233864 0.233954 0.234058 0.234151 0.234253 0.234348 0.234449 0.234539 0.234643 0.234737 0.234835 0.234945 0.235047 0.235149 0.235248 0.235349 0.235455 0.235556 0.235661 0.235772 0.235879 0.235983 0.236089 0.236199 0.236302 0.236409 0.236523 0.236629 0.236745 0.236859 0.236969 0.237079 0.237188 0.237305 0.237418 0.237534 0.237649 0.237768 0.237887 0.237992 0.238117 0.238228 0.238345 0.238471 0.238591 0.238706 0.238825 0.23895 0.239073 0.239198 0.23932 0.239441 0.239563 0.239685 0.239811 0.239944 0.240062 0.240188 0.240325 0.240448 0.240578 0.240706 0.240837 0.240964 0.241096 0.241232 0.241362 0.241493 0.241626 0.241749 0.241891 0.242026 0.242152 0.242292 0.242428 0.242571 0.242698 0.242839 0.242976 0.243121 0.243255 0.243393 0.243532 0.243676 0.243813 0.243961 0.244096 0.244247 0.244381 0.244527 0.24468 0.244817 0.244968 0.245115 0.245261 0.245412 0.245544 0.24569 0.245843 0.246003 0.246143 0.246293 0.246444 0.246596 0.246747 0.246904 0.247061 0.247202 0.247362 0.247507 0.247666 0.247821 0.247967 0.248133 0.24828 0.248445 0.248602 0.248755 0.248915 0.249075 0.249239 0.249395 0.249558 0.249724 0.249876 0.250045 0.250207 0.250362 0.250529 0.250695 0.250851 0.25102 0.251193 0.251349 0.25152 0.251684 0.25185 0.252019 0.252181 0.252357 0.252528 0.252694 0.252857 0.253034 0.253207 0.253375 0.253552 0.253728 0.25389 0.254061 0.25424 0.254414 0.254585 0.254759 0.254928 0.25511 0.255286 0.255462 0.255645 0.25582 0.255995 0.256173 0.256357 0.256535 0.256717 0.256896 0.257083 0.257259 0.257445 0.257615
0.257742 0.257561 0.257374 0.257194 0.257017 0.256822 0.256654 0.256473 0.256297 0.25612 0.255939 0.255758 0.255588 0.255405 0.255232 0.255057 0.254882 0.254703 0.254533 0.25436 0.254193 0.254012 0.253841 0.253668 0.253495 0.253323 0.253152 0.252984 0.252815 0.252645 0.252476 0.252308 0.252135 0.251977 0.251804 0.251632 0.251474 0.251307 0.251144 0.250972 0.250818 0.250652 0.250488 0.250327 0.250163 0.250004 0.249841 0.249677 0.249518 0.249358 0.249203 0.249048 0.24888 0.24873 0.248562 0.24841 0.248249 0.248103 0.247945 0.24779 0.247635 0.247482 0.247331 0.247175 0.247019 0.246874 0.246714 0.24657 0.246418 0.246265 0.246122 0.245972 0.245822 0.245668 0.245526 0.245382 0.24523 0.245086 0.244946 0.244805 0.244656 0.244512 0.244366 0.244222 0.244089 0.243941 0.243801 0.243666 0.243517 0.243385 0.243244 0.2431 0.242964 0.242832 0.242688 0.242554 0.242419 0.242286 0.242153 0.242013 0.241878 0.241749 0.241616 0.241481 0.241351 0.241226 0.241093 0.240959 0.24083 0.2407 0.240567 0.240449 0.240325 0.240194 0.240069 0.239938 0.239817 0.239693 0.239567 0.239449 0.239318 0.239197 0.239077 0.238959 0.238842 0.238714 0.238593 0.238475 0.238359 0.238245 0.238128 0.238003 0.237895 0.237775 0.237662 0.237546 0.237436 0.237319 0.2372 0.237099 0.23698 0.236873 0.236762 0.236648 0.236542 0.236433 0.236323 0.236215 0.236111 0.236005 0.235897 0.235793 0.235687 0.235579 0.235469 0.235376 0.235273 0.235172 0.235074 0.234971 0.234871 0.234767 0.234671 0.234574 0.234473 0.234375 0.234281 0.234188 0.23409 0.233991 0.233905 0.233807 0.233719 0.233625 0.233531 0.233439 0.233351 0.233261 0.23317 0.233079 0.232989 0.232902 0.23281 0.232727 0.232644 0.232558 0.232478 0.232393 0.232309 0.23222 0.23214 0.232062 0.23198 0.231896 0.231815 0.231737 0.231663 0.231576 0.231509 0.231431 0.23135 0.231276 0.231197 0.231123 0.231056 0.23098 0.230907 0.230831 0.230757 0.230692 0.230627 0.230547 0.230489 0.230412 0.230346 0.230282 0.230214 0.230149 0.230083 0.230022 0.22995 0.229896 0.22983 0.229765 0.229708 0.229646 0.229583 0.229526 0.229464 0.229408 0.22935 0.229295 0.229238 0.229181 0.229128 0.229074 0.229017 0.22897 0.228909 0.228859 0.228812 0.228757 0.228705 0.228658 0.228608 0.228558 0.228512 0.228468 0.228421 0.228377 0.228331 0.228283 0.228244 0.228204 0.228155 0.228115 0.228074 0.228033 0.227996 0.227955 0.227916 0.227876 0.22784 0.227801 0.227763 0.227732 0.227699 0.227664 0.227622 0.227592 0.227564 0.227529 0.227498 0.227471 0.227441 0.227408 0.227383 0.227354 0.227331 0.227304 0.227273 0.22725 0.227223 0.2272 0.227178 0.227153 0.227137 0.227114 0.227087 0.227073 0.22705 0.227038 0.227015 0.227 0.22698 0.226964 0.226949 0.226936 0.226917 0.226906 0.22689 0.226882 0.226868 0.226852 0.226847 0.226837 0.226826 0.226821 0.226816 0.226806 0.226796 0.226794 0.226788 0.226783 0.22678 0.226773 0.226773 0.226774 0.226771 0.226775 0.226774 0.226775 0.226776 0.226771 0.226774 0.226779 0.226779 0.226785 0.226794 0.226793 0.226805 0.226808 0.226818 0.226827 0.226836 0.226849 0.226855 0.226872 0.226879 0.226888 0.226907 0.226914 0.226931 0.226949 0.226965 0.226982 0.226998 0.227017 0.227034 0.22705 0.227073 0.227093 0.227108 0.227132 0.227154 0.227178 0.227203 0.227225 0.227253 0.227274 0.227302 0.227323 0.227352 0.22738 0.227412 0.227439 0.227469 0.227498 0.22753 0.227562 0.227594 0.227626 0.227661 0.227696 0.227734 0.227766 0.227799 0.227839 0.22788 0.227917 0.227957 0.227991 0.228027 0.228072 0.228118 0.228159 0.228201 0.228236 0.228283 0.228331 0.228374 0.22842 0.228466 0.228511 0.22856 0.228608 0.228656 0.228703 0.228758 0.228809 0.228862 0.228913 0.228964 0.229024 0.22907 0.229124 0.229174 0.229234 0.229295 0.229351 0.22941 0.229468 0.229526 0.229585 0.229649 0.229707 0.229764 0.229827 0.229896 0.229955 0.23002 0.230086 0.230144 0.230216 0.230284 0.230348 0.230416 0.230488 0.230558 0.23062 0.230687 0.230765 0.23083 0.230907 0.230978 0.231048 0.231128 0.231201 0.231279 0.231354 0.231426 0.231502 0.231578 0.231662 0.231736 0.231814 0.231896 0.231976 0.232058 0.23214 0.232221 0.232305 0.232384 0.23247 0.232563 0.232644 0.232729 0.232819 0.232903 0.232992 0.233076 0.233168 0.233258 0.23335 0.233436 0.233531 0.233624 0.233714 0.233807 0.233902 0.233995 0.23409 0.234191 0.234281 0.234377 0.234472 0.234571 0.234667 0.234772 0.234866 0.234968 0.235075 0.235172 0.235272 0.235375 0.235479 0.235581 0.235686 0.235791 0.235897 0.236009 0.236114 0.236214 0.236324 0.236434 0.23654 0.236647 0.236762 0.236867 0.236984 0.237093 0.237207 0.237318 0.237431 0.237547 0.237661 0.237776 0.23789 0.238008 0.238124 0.238236 0.23836 0.238481 0.238597 0.238718 0.238833 0.238958 0.239074 0.239196 0.239322 0.239441 0.239567 0.239693 0.239807 0.239936 0.240061 0.240198 0.240318 0.240446 0.240576 0.240705 0.240831 0.240961 0.241086 0.241224 0.241357 0.241486 0.241615 0.241745 0.241883 0.242013 0.242145 0.242283 0.242422 0.242549 0.242696 0.242827 0.24297 0.243105 0.243246 0.243379 0.243521 0.243659 0.243799 0.243937 0.244084 0.244226 0.244372 0.244519 0.244654 0.244799 0.244939 0.24509 0.245234 0.245391 0.245524 0.245672 0.245818 0.245967 0.246115 0.246267 0.246418 0.246563 0.246724 0.246865 0.247026 0.247171 0.247329 0.247479 0.247628 0.247787 0.247943 0.248099 0.248252 0.248405 0.248563 0.248728 0.248877 0.249044 0.249192 0.249356 0.24952 0.249679 0.249835 0.249999 0.250158 0.250326 0.250486 0.250649 0.250815 0.250979 0.251142 0.251304 0.251473 0.251638 0.251801 0.25197 0.252136 0.252306 0.252473 0.252637 0.252826 0.252983 0.253149 0.253324 0.253503 0.253666 0.253845 0.254011 0.25418 0.254364 0.254529 0.254703 0.254882 0.25506 0.255235 0.255408 0.255581 0.255755 0.255932 0.256118 0.256296 0.256469 0.25665 0.256826 0.257015 0.257198 0.257375 0.257554 0.257741
0.257855 0.257668 0.257497 0.25731 0.257135 0.256955 0.256777 0.256591 0.256418 0.256239 0.256059 0.255881 0.255701 0.255527 0.255349 0.255187 0.255001 0.254825 0.25465 0.254474 0.254309 0.254132 0.253958 0.253785 0.253623 0.253445 0.253269 0.253099 0.252937 0.252762 0.252594 0.252424 0.252265 0.25209 0.251924 0.251768 0.251598 0.251429 0.251263 0.2511 0.250933 0.250763 0.250615 0.250447 0.250288 0.250122 0.249962 0.249802 0.24964 0.249476 0.24933 0.249161 0.249003 0.248842 0.248687 0.248532 0.248374 0.248233 0.248066 0.247916 0.247753 0.2476 0.24745 0.247296 0.247147 0.246995 0.246849 0.246691 0.246539 0.246391 0.246244 0.2461 0.245951 0.245797 0.245656 0.245501 0.24536 0.245212 0.245071 0.244923 0.244778 0.244635 0.244497 0.244345 0.244207 0.244062 0.243925 0.243786 0.243647 0.243505 0.243369 0.243231 0.243095 0.242953 0.242811 0.242683 0.242545 0.242404 0.242269 0.242141 0.242007 0.241875 0.241741 0.241606 0.241479 0.241347 0.241215 0.241085 0.240951 0.240834 0.240706 0.24057 0.240442 0.240317 0.240196 0.240066 0.239943 0.23982 0.239688 0.239566 0.239453 0.239326 0.239211 0.239082 0.238962 0.238845 0.238723 0.238604 0.238494 0.238365 0.238251 0.238134 0.238019 0.237907 0.237787 0.237674 0.237555 0.237447 0.237331 0.237224 0.237106 0.237 0.236885 0.236776 0.236671 0.236567 0.236461 0.236346 0.236238 0.236128 0.236023 0.235925 0.235819 0.235713 0.235607 0.235506 0.235403 0.235303 0.235199 0.235098 0.235003 0.234905 0.234805 0.234701 0.234604 0.234505 0.23441 0.234309 0.23422 0.234123 0.234026 0.233944 0.233841 0.233747 0.233655 0.233564 0.233472 0.233386 0.233298 0.233213 0.233121 0.233034 0.232946 0.232859 0.23277 0.232689 0.232606 0.232524 0.232438 0.232356 0.232274 0.232191 0.232105 0.232023 0.231949 0.231874 0.231794 0.231715 0.231631 0.23156 0.23148 0.231407 0.231339 0.231256 0.231184 0.231116 0.231037 0.230966 0.230894 0.230829 0.230757 0.230684 0.230614 0.230545 0.230481 0.230417 0.230348 0.230285 0.230211 0.230149 0.230087 0.230025 0.229966 0.229902 0.229839 0.229781 0.229717 0.229656 0.229599 0.229544 0.229487 0.229433 0.229372 0.229316 0.229256 0.229204 0.22915 0.229102 0.229044 0.228989 0.228945 0.228888 0.228834 0.228794 0.228746 0.228696 0.22865 0.228598 0.228558 0.228503 0.228457 0.22842 0.228372 0.228333 0.228286 0.228249 0.228207 0.228163 0.228124 0.228091 0.228049 0.228009 0.227976 0.227934 0.227896 0.227863 0.227827 0.227791 0.227763 0.227727 0.227697 0.227664 0.227637 0.227602 0.227571 0.227545 0.227512 0.227491 0.227461 0.227436 0.227411 0.227383 0.227356 0.227334 0.227309 0.22729 0.227267 0.227243 0.227222 0.227204 0.227183 0.227165 0.227146 0.227131 0.227116 0.227095 0.22708 0.227068 0.227054 0.227043 0.227028 0.227014 0.227005 0.226988 0.226981 0.226971 0.226962 0.226951 0.226943 0.226939 0.226934 0.226931 0.226922 0.226918 0.226913 0.226909 0.226906 0.226903 0.226904 0.226909 0.226898 0.226907 0.226908 0.226909 0.226906 0.226913 0.226918 0.226917 0.22693 0.226931 0.226938 0.226946 0.226956 0.226966 0.226974 0.226983 0.226993 0.227007 0.227018 0.227025 0.22704 0.22705 0.227069 0.227084 0.2271 0.227118 0.227129 0.227148 0.227165 0.227185 0.22721 0.227223 0.227241 0.227265 0.227293 0.227312 0.227334 0.227358 0.227386 0.227405 0.227435 0.227461 0.227487 0.227515 0.227539 0.227575 0.227607 0.227633 0.227658 0.227695 0.227726 0.227766 0.227797 0.227832 0.227863 0.227893 0.227932 0.227969 0.228007 0.228043 0.228083 0.228125 0.228166 0.228206 0.228247 0.22829 0.228335 0.228376 0.22842 0.228462 0.228507 0.228556 0.228602 0.228643 0.228693 0.228737 0.228792 0.228845 0.22889 0.228941 0.228995 0.229049 0.2291 0.229148 0.229201 0.22926 0.229312 0.229371 0.22943 0.22948 0.229538 0.229594 0.22966 0.229719 0.229773 0.229842 0.229898 0.229963 0.230022 0.230083 0.230151 0.230214 0.230283 0.230345 0.230415 0.230477 0.230544 0.230618 0.230682 0.230752 0.23083 0.230898 0.230967 0.231039 0.23111 0.231188 0.231257 0.231331 0.231405 0.231484 0.231561 0.231641 0.231714 0.231795 0.231869 0.231943 0.232029 0.23211 0.232191 0.23227 0.232351 0.232436 0.232521 0.232606 0.232691 0.232774 0.232861 0.232943 0.233035 0.233119 0.233207 0.233301 0.233391 0.233483 0.233567 0.233663 0.233753 0.233841 0.233935 0.234034 0.234122 0.234221 0.234316 0.234408 0.234505 0.234606 0.234703 0.234803 0.234903 0.234996 0.235097 0.2352 0.235301 0.235405 0.235508 0.235607 0.23571 0.23582 0.23592 0.236018 0.236136 0.23624 0.236347 0.236453 0.236562 0.23667 0.236778 0.236892 0.236996 0.23711 0.237215 0.237333 0.237447 0.237562 0.237677 0.237791 0.237906 0.238019 0.238137 0.238247 0.238359 0.238488 0.238606 0.238726 0.238844 0.238962 0.239087 0.239202 0.239324 0.23945 0.239572 0.239691 0.239823 0.239949 0.240063 0.240196 0.240315 0.240445 0.240579 0.240699 0.240826 0.240956 0.24109 0.241219 0.241337 0.241483 0.241604 0.241739 0.241876 0.242019 0.242142 0.242274 0.242415 0.242535 0.242684 0.242817 0.242953 0.243092 0.243225 0.243362 0.243507 0.243642 0.243779 0.243925 0.244071 0.244206 0.244355 0.244494 0.244636 0.244782 0.244917 0.245071 0.245215 0.245353 0.245504 0.24565 0.245801 0.245939 0.246087 0.246248 0.246397 0.246541 0.246694 0.246836 0.246992 0.247141 0.247298 0.247451 0.247605 0.247759 0.247909 0.248072 0.248215 0.248379 0.248535 0.248689 0.248843 0.249001 0.24917 0.249324 0.249483 0.249641 0.249797 0.249955 0.250119 0.250282 0.250443 0.250611 0.250768 0.25094 0.2511 0.25126 0.251428 0.251595 0.251758 0.25193 0.25209 0.252253 0.252426 0.252592 0.252768 0.252942 0.253105 0.253272 0.253446 0.25361 0.253784 0.253958 0.254131 0.254306 0.254476 0.254654 0.254824 0.255 0.25517 0.255353 0.255527 0.255702 0.25588 0.256058 0.25624 0.256419 0.256592 0.256769 0.25696 0.257132 0.257311 0.257496 0.25767 0.257862
